# .PCD v0.7 - Point Cloud Data file format
VERSION 0.7
FIELDS x y z
SIZE 4 4 4
TYPE F F F
COUNT 1 1 1
WIDTH 1275
HEIGHT 1
VIEWPOINT 0 0 0 1 0 0 0
POINTS 1275
DATA ascii
2.3896489 1.1312199 -0.73985308
2.4258859 1.124893 -0.7269721
2.3729422 1.1492943 -0.73386312
2.4059095 1.142368 -0.72845942
2.5142403 1.0663778 -0.665555
2.3955266 1.1342394 -0.66346413
2.4363713 1.119136 -0.68862396
2.4918582 1.0998201 -0.67189306
2.3785841 1.1675078 -0.68800199
2.4079199 1.1460629 -0.6981256
2.3673959 1.2097243 -0.6718443
2.5162072 1.0730768 -0.64713275
2.4341798 1.1311514 -0.63166958
2.4889379 1.1126788 -0.6344775
2.3392889 1.1968359 -0.6277054
2.3757401 1.1802917 -0.6329574
2.4267168 1.1513642 -0.62467784
2.3307347 1.2308855 -0.61507928
2.3467109 1.2249941 -0.63885838
2.3373618 1.2624782 -0.65433413
2.3400888 1.2632883 -0.64294749
1.2583303 0.54868382 -0.54376775
1.2800577 0.56815302 -0.54329628
1.2657638 0.62820226 -0.54486209
2.4420087 1.1354023 -0.56550968
2.4861422 1.1222668 -0.56693894
2.3765795 1.1838139 -0.57085848
2.4314654 1.1602466 -0.5670194
2.3255 1.2360904 -0.56539911
2.3574433 1.2124215 -0.57231468
2.3236084 1.2636458 -0.56295192
1.0691553 0.22897141 -0.48664242
1.1098059 0.23416072 -0.48593301
1.0709636 0.26846606 -0.48707947
1.1087811 0.26875627 -0.48821563
1.153372 0.28192264 -0.4848884
1.0593945 0.34258062 -0.48762995
1.1006093 0.3014966 -0.50164884
1.0639924 0.39264813 -0.48573768
1.096736 0.39261872 -0.48763803
1.1512482 0.41563833 -0.48953366
1.069579 0.43085295 -0.48891506
1.1173058 0.44835186 -0.49393255
1.1582432 0.44505882 -0.4983519
1.2373095 0.47424692 -0.51106888
1.1306889 0.48176143 -0.49399567
1.1428217 0.4802666 -0.49276116
1.2472879 0.49567962 -0.52019465
1.2916028 0.51189035 -0.52321219
1.3467644 0.52180517 -0.50603724
1.3840877 0.52955097 -0.52057129
1.2436033 0.56044114 -0.52883536
1.292497 0.57544118 -0.51303333
1.3417978 0.55497342 -0.51406455
1.3823444 0.54896277 -0.51729345
1.2474095 0.62551486 -0.50414407
1.2725774 0.61402553 -0.50812894
2.4905746 1.1237073 -0.5115205
2.3806522 1.1945982 -0.51818401
2.4305708 1.1666634 -0.50890124
2.4849317 1.1413127 -0.51010513
2.3295388 1.2350138 -0.51041305
2.3633053 1.226324 -0.50883985
2.4019754 1.2080857 -0.48434317
2.3284833 1.2747898 -0.49678537
2.3408051 1.2714033 -0.53497529
0.94936478 0.17780721 -0.42194009
0.93738443 0.18424256 -0.42565095
0.98502731 0.18893144 -0.42741716
1.0663002 0.21220811 -0.46296898
1.111519 0.22784659 -0.44963059
0.94259179 0.27685422 -0.42156926
1.0572075 0.27739117 -0.46995944
1.1260465 0.25816071 -0.45871559
1.1637244 0.27017388 -0.45229653
1.2137322 0.28671473 -0.44608286
1.0400417 0.33503699 -0.47245497
1.0485533 0.37717527 -0.47233316
1.1007507 0.38941675 -0.47639269
1.0551981 0.42821836 -0.47682199
1.311655 0.51880163 -0.43550333
1.3334328 0.52355015 -0.46569163
1.3001572 0.57080895 -0.44863456
1.3217124 0.54152012 -0.471176
1.248091 0.63504821 -0.46220323
1.2827365 0.61515474 -0.4500649
1.3329395 0.61515665 -0.42302817
2.4864979 1.1334159 -0.46020657
2.3873885 1.1993726 -0.44512337
2.432611 1.1769457 -0.45800722
2.4722962 1.1552047 -0.44712409
2.3244891 1.2422343 -0.43568113
2.3618214 1.2280313 -0.45359781
2.4072647 1.2050233 -0.45277122
2.3288641 1.2893059 -0.45273942
2.3447397 1.2959721 -0.44425511
0.82207209 -0.43335477 -0.379381
0.84396344 -0.43403172 -0.38071549
0.77881646 -0.39275572 -0.36620921
0.81840241 -0.38244855 -0.37232754
0.85481763 -0.38411516 -0.3700912
0.83115023 -0.34073424 -0.38082802
0.87001449 -0.32458133 -0.3765361
0.93586242 -0.30949154 -0.36494318
0.96602941 -0.30944449 -0.36391565
0.82932562 -0.27912462 -0.38567117
0.87911123 -0.27706939 -0.39101106
0.92761129 -0.26729769 -0.38030893
0.98241091 -0.26287934 -0.36723277
1.0313563 -0.26596141 -0.36141133
0.8775813 -0.20443501 -0.39107838
0.93815088 -0.21705227 -0.38574129
0.97513783 -0.21630792 -0.37332985
1.052425 -0.18924111 -0.38777414
1.1123961 -0.19208488 -0.38347396
1.1671516 -0.19144392 -0.36849156
1.2061654 -0.18274151 -0.36579072
0.82976389 -0.15013626 -0.37876239
0.86504781 -0.15175045 -0.37533504
0.91884732 -0.14277366 -0.37027308
0.98333126 -0.15528016 -0.37635946
1.0552342 -0.16450553 -0.3844749
1.1139845 -0.16965739 -0.38295186
1.1678236 -0.17367694 -0.36674768
0.82591665 -0.071825586 -0.36773553
0.85660011 -0.10046871 -0.37570602
0.90439939 -0.11849885 -0.36820483
0.82277244 -0.032802749 -0.366528
0.84609532 -0.015215364 -0.3655391
0.82252353 0.025249965 -0.36933723
0.85704559 0.033123005 -0.36835489
0.8284781 0.060312569 -0.37723088
0.87108207 0.090730645 -0.37863764
0.88909709 0.13254161 -0.38559511
0.92189443 0.15334547 -0.39121908
0.96373332 0.17627005 -0.38565001
0.98959208 0.18705824 -0.38876083
1.1125702 0.22901015 -0.40935293
0.87867367 0.27662379 -0.37344098
0.9254269 0.26265463 -0.38829142
0.97831398 0.24865074 -0.37709239
1.1283234 0.2429388 -0.3990337
1.1671144 0.26245421 -0.41097307
1.2220654 0.28451708 -0.40991724
0.88501048 0.30875742 -0.36745915
0.90064496 0.31203514 -0.37983757
1.311929 0.50830013 -0.40513471
1.3335047 0.52742684 -0.38850778
1.3152827 0.57194817 -0.41518247
1.3397419 0.56302482 -0.39523333
2.3813543 1.194898 -0.40488762
2.43278 1.181417 -0.39128137
2.4644985 1.1652064 -0.40788606
2.3314674 1.2421033 -0.3860977
2.3687601 1.2233881 -0.39223179
2.4169633 1.206165 -0.37497392
2.3269017 1.2884451 -0.38575941
2.343971 1.2944597 -0.41682005
2.3262227 1.3233111 -0.39114851
0.8787393 -0.48661989 -0.32292095
0.92605811 -0.50324714 -0.3113656
0.82435513 -0.44489402 -0.34132287
0.86373425 -0.44771186 -0.3287873
0.92590594 -0.45278054 -0.31348026
0.98490119 -0.44010678 -0.30929738
1.1151251 -0.42613912 -0.30187926
0.77968323 -0.41362196 -0.34675342
0.81696224 -0.40405643 -0.35071775
0.86763185 -0.3903459 -0.34239182
0.92272508 -0.39019954 -0.33056027
0.98992199 -0.38757929 -0.32068983
1.0442483 -0.38161305 -0.30632207
1.1136264 -0.38614407 -0.31171715
1.1668416 -0.37642378 -0.30612484
0.87931496 -0.34215736 -0.35089138
0.93115163 -0.33745041 -0.35141346
0.98965102 -0.33193767 -0.33741343
1.0554582 -0.32407227 -0.33329403
1.1091589 -0.33007336 -0.32739991
1.1710987 -0.33182558 -0.31863374
1.2099594 -0.33277249 -0.30859631
0.99670911 -0.276766 -0.34650722
1.0435605 -0.26875949 -0.34337586
1.109049 -0.28549775 -0.33673847
1.155162 -0.29189748 -0.31811509
0.87554091 -0.18048343 -0.35990486
0.95022285 -0.198936 -0.347161
0.98629391 -0.21094784 -0.32582814
1.0423779 -0.19422384 -0.32537568
1.0960001 -0.19644552 -0.33502766
1.1850468 -0.20084463 -0.34194466
1.2078743 -0.19241346 -0.32906428
0.87537032 -0.17015564 -0.3584525
0.94743735 -0.12503864 -0.35103676
1.0019292 -0.12868577 -0.32946321
1.0361757 -0.13829631 -0.31976172
1.1882584 -0.16136456 -0.32370803
1.2054012 -0.17364277 -0.32305771
0.83774781 -0.084749795 -0.35600916
0.8686142 -0.085191749 -0.35512859
0.92987436 -0.08756803 -0.33368495
0.98347312 -0.10894199 -0.31551126
0.82655936 -0.039723381 -0.35605499
0.87899607 -0.027209416 -0.33598703
0.90685624 -0.04914365 -0.31685677
0.78957963 0.01241601 -0.35922754
0.87281913 0.0297228 -0.32969254
0.88186884 0.088308327 -0.33072236
0.90603882 0.11742962 -0.30450249
0.89477968 0.12472401 -0.33959424
0.92726541 0.14795849 -0.32639298
0.96682608 0.17511305 -0.32314575
0.95919496 0.18153936 -0.3359533
0.98658502 0.20120446 -0.32302129
1.0361831 0.23342595 -0.3243649
0.83723313 0.28441474 -0.31780544
0.86323613 0.27066773 -0.32949358
0.92754722 0.25837305 -0.33762243
0.98819876 0.25813088 -0.32758191
1.0333502 0.25152475 -0.31945392
0.8593455 0.30973944 -0.32355964
1.3591441 0.53594691 -0.35768571
2.3956199 1.1958174 -0.31403506
2.4233253 1.1867753 -0.33539501
2.3298395 1.2478719 -0.33068544
2.3702784 1.2234783 -0.33120623
2.4061894 1.2052536 -0.34564751
2.3110993 1.286592 -0.32919478
1.1074526 -0.61145717 -0.24333806
1.0086404 -0.55090278 -0.27244568
1.050107 -0.55933148 -0.2545768
1.1083044 -0.55363256 -0.24505854
1.1531972 -0.54511738 -0.2432733
0.93720967 -0.50283486 -0.29004169
0.99294281 -0.5111503 -0.28587651
1.0425529 -0.510607 -0.26699197
1.1181501 -0.50898749 -0.2604872
1.1691457 -0.50854802 -0.25366446
1.2114322 -0.49873009 -0.24390629
0.89829642 -0.47030628 -0.29363585
0.92656207 -0.47696504 -0.29515535
1.0045027 -0.45181462 -0.29385087
1.0353323 -0.45409116 -0.27752152
1.1172022 -0.44769508 -0.28733698
1.1638072 -0.45126179 -0.2738528
1.2146044 -0.44679028 -0.25570747
1.0143492 -0.40543842 -0.29700437
1.0337088 -0.40696204 -0.29218677
1.1334357 -0.40677786 -0.2949377
1.1771091 -0.39509413 -0.2892547
1.2233018 -0.38778341 -0.26672772
1.1999657 -0.31529844 -0.29938605
1.2244906 -0.3298724 -0.27048025
1.0577914 -0.24980563 -0.27120864
1.0998893 -0.26496935 -0.25458145
1.1818417 -0.29245874 -0.28249305
1.2046094 -0.29767579 -0.26720291
1.0109252 -0.21986714 -0.28885135
1.0480828 -0.21475199 -0.26722848
1.1040331 -0.19974764 -0.26175433
1.1700532 -0.19629328 -0.2639173
1.2148838 -0.18991989 -0.27287579
1.0514673 -0.12649101 -0.29121628
1.0813315 -0.12678324 -0.28486177
1.1907054 -0.146782 -0.28144401
1.2077879 -0.15844461 -0.26542231
0.94360036 -0.068605393 -0.27907419
0.98418021 -0.086927786 -0.26943785
1.0392389 -0.10897598 -0.2770181
1.0841638 -0.11913425 -0.27743766
0.89669675 -0.0089111784 -0.29131317
0.92608917 -0.031652208 -0.26798046
0.88990557 0.03281327 -0.28444073
0.90861201 0.028024359 -0.25678769
0.89222693 0.083928779 -0.28771192
0.91778499 0.09331581 -0.26142782
0.94034594 0.14934644 -0.26921901
0.96240562 0.17149356 -0.29998675
0.95288086 0.19204712 -0.2564573
0.9777832 0.21410911 -0.27246585
1.0271637 0.23819497 -0.29050195
0.82692701 0.27946854 -0.26628998
0.86744004 0.26713696 -0.27646416
0.91748822 0.26939842 -0.27722239
0.99297041 0.26693252 -0.27015913
1.0264812 0.24916221 -0.28640726
0.83304024 0.30414358 -0.26735666
0.8495782 0.31461737 -0.27897227
2.4224055 1.192993 -0.27339077
2.3221767 1.2562956 -0.27530435
2.3695085 1.2355372 -0.27138519
2.40903 1.2103631 -0.2651459
2.2779775 1.2921911 -0.26163089
2.3013086 1.2794576 -0.27024752
2.3545105 1.268582 -0.2514461
1.1181276 -0.60878253 -0.20830993
1.0656457 -0.57785469 -0.23608375
1.1217442 -0.58449799 -0.21705325
1.1638256 -0.56349254 -0.21087705
1.1812238 -0.51798654 -0.19920848
1.2161736 -0.5091753 -0.22174729
1.1838317 -0.46572295 -0.18577489
1.2220255 -0.44798949 -0.21185851
1.1981395 -0.37875786 -0.18548287
1.2164021 -0.38927856 -0.21241596
1.1999394 -0.35498378 -0.18229762
1.2275125 -0.33171296 -0.20961435
1.2648529 -0.30551165 -0.20366658
1.0716933 -0.24398239 -0.23002692
1.110086 -0.25301567 -0.21149886
1.1560258 -0.25570852 -0.18788625
1.2384109 -0.29038447 -0.21278711
1.2725583 -0.2934033 -0.19249439
1.0692117 -0.22928151 -0.22907014
1.1001277 -0.20953164 -0.2073731
1.1632478 -0.18700159 -0.23259616
1.1113909 -0.16508189 -0.19401367
1.1785152 -0.13944167 -0.20524426
1.2086716 -0.1513792 -0.22735919
0.99469608 -0.074161984 -0.21400084
1.0403782 -0.092906259 -0.20194824
1.0984578 -0.10948874 -0.20032246
1.1579134 -0.11687917 -0.19450952
0.94481564 -0.021803051 -0.21262692
0.97087568 -0.049640309 -0.20669715
0.93050402 0.029890694 -0.21180058
0.93835002 0.089663699 -0.20980899
0.94623435 0.14895418 -0.20996571
0.95377374 0.19373024 -0.21156135
0.96888459 0.22302401 -0.20805189
0.82642859 0.28817928 -0.21305509
0.86417907 0.27597523 -0.21796991
0.93718636 0.29394668 -0.19653518
0.98446345 0.27205732 -0.20896769
0.81907576 0.30666041 -0.20606783
0.98076993 0.30263913 -0.20723142
2.4092748 1.1905874 -0.23146509
2.3350372 1.2473371 -0.20233712
2.3695879 1.236765 -0.20823646
2.4046471 1.2107651 -0.22108904
2.3148246 1.2901944 -0.20871967
2.3461783 1.2691183 -0.22205643
1.1193733 -0.60734403 -0.14764047
1.1306642 -0.59253329 -0.15228188
1.1563896 -0.56916076 -0.15023503
1.1388755 -0.4929041 -0.13658309
1.151422 -0.51337755 -0.14985947
1.1324174 -0.45026097 -0.13692956
1.1591552 -0.44884482 -0.1601188
1.2144071 -0.42966908 -0.16954684
1.1350033 -0.41598552 -0.12746762
1.179423 -0.38951603 -0.1379256
1.2058671 -0.38405538 -0.16399185
1.1915524 -0.35522777 -0.12437715
1.2301564 -0.33121699 -0.14960033
1.2648342 -0.30918878 -0.16750878
1.1387846 -0.2404644 -0.17108805
1.1451569 -0.24752589 -0.17768958
1.2454814 -0.25830287 -0.13706711
1.2722133 -0.28092211 -0.14987856
1.0777084 -0.18933859 -0.14775056
1.0991648 -0.2023989 -0.15394905
1.1734461 -0.22687909 -0.14030625
1.219357 -0.23328948 -0.13023393
1.0624495 -0.14662158 -0.13601863
1.0944082 -0.15425397 -0.16224498
1.1537771 -0.12494057 -0.17511943
1.0092075 -0.063880779 -0.15694396
1.0536541 -0.086070538 -0.14634305
1.1004516 -0.10292567 -0.14935376
1.1541255 -0.11225857 -0.17449945
0.94778877 -0.018167764 -0.15058228
0.97621733 -0.046544839 -0.14866967
0.94328827 0.027140668 -0.15156938
0.96866798 0.052185692 -0.12623265
0.94920957 0.085779443 -0.16310415
0.97060817 0.091712065 -0.13469855
0.955194 0.14461775 -0.17286918
0.97290212 0.15026549 -0.14417841
0.95589572 0.18332167 -0.17799945
0.98181331 0.20940268 -0.14968157
0.82549161 0.28215861 -0.14703843
0.85346872 0.2694267 -0.15201269
0.99528503 0.27080843 -0.15033367
0.81567138 0.3199302 -0.14503579
1.0091304 0.30120993 -0.13236043
2.2771788 0.57864863 -0.12804855
2.2849188 0.59191841 -0.12489832
2.2798562 0.61336154 -0.12472866
2.2908914 0.63179076 -0.1425321
2.3005731 0.68691736 -0.14588076
2.3128626 0.75288719 -0.14110367
2.3301589 0.79954529 -0.14122026
2.3305717 1.2494559 -0.15145558
2.3552375 1.2409703 -0.16855517
2.318435 1.2874496 -0.15207353
1.1341507 -0.61588544 -0.10701782
1.1669286 -0.61760199 -0.085984588
1.1345791 -0.59425843 -0.11640597
1.1800159 -0.57478088 -0.091697499
1.2044494 -0.57824337 -0.072487332
1.1393938 -0.50866532 -0.11515436
1.1596813 -0.50933856 -0.087983079
1.1349759 -0.44207475 -0.11093751
1.1518414 -0.45304599 -0.083719268
1.1331848 -0.40312722 -0.10404456
1.159456 -0.38522097 -0.086148314
1.217294 -0.36913875 -0.064925335
1.3075209 -0.375669 -0.064364731
1.3299825 -0.37352809 -0.061925866
1.1795363 -0.34980902 -0.10048561
1.2291065 -0.32661891 -0.09381707
1.2888602 -0.32927415 -0.078219689
1.331355 -0.35709694 -0.064839542
1.1986171 -0.24646954 -0.065196186
1.2267108 -0.26846698 -0.087967105
1.2615176 -0.27523428 -0.11705256
1.104654 -0.18892789 -0.10548232
1.1847498 -0.20093003 -0.087091386
1.2061003 -0.22129153 -0.084906906
1.0546312 -0.14153342 -0.093243219
1.0984815 -0.16785493 -0.0854306
1.1635095 -0.17487285 -0.067215756
1.0112988 -0.080032915 -0.078668363
1.0343251 -0.096515812 -0.099570274
0.95441347 -0.011488856 -0.11108513
0.9789955 -0.031232467 -0.087100253
0.95164055 0.010186224 -0.11157823
0.97427368 0.031224938 -0.08719819
0.98160386 0.089841783 -0.089438602
0.99388468 0.15074755 -0.090170652
1.0068902 0.20607673 -0.095392048
1.0319389 0.22725886 -0.07246951
0.83563137 0.27968365 -0.10827239
0.8490324 0.27959108 -0.086707272
1.014648 0.26186946 -0.11086192
1.0347781 0.26936859 -0.090468362
0.82387716 0.33849478 -0.09229064
0.84430724 0.31309202 -0.082091965
1.011143 0.3051399 -0.10625441
1.0289536 0.30332774 -0.10543054
0.80887038 0.36383796 -0.076810986
2.2518673 0.52449548 -0.077186219
2.2741511 0.56723934 -0.090696372
2.2815259 0.57118261 -0.089920998
2.2765706 0.62156117 -0.089302242
2.2840893 0.63331664 -0.094646782
2.276417 0.66910398 -0.070152424
2.2968209 0.68840057 -0.09485922
2.3028388 0.74829763 -0.089850955
2.3093767 0.80508518 -0.08531794
2.3044944 0.84513432 -0.068704136
2.0766845 1.01133 -0.085685574
2.1048892 0.99322081 -0.078918785
2.06217 1.0256623 -0.07495711
2.3186917 1.2598306 -0.10829381
2.2970619 1.2926598 -0.10503238
1.1325586 -0.61461216 -0.038546529
1.1567097 -0.61271989 -0.025877435
1.1780807 -0.58161229 -0.029430058
1.2116803 -0.55461246 -0.028735414
1.1902555 -0.50519717 -0.047088955
1.2313267 -0.51506996 -0.018982433
1.3155812 -0.48142865 -0.0035773776
1.3657376 -0.48578015 -0.0037660885
1.1838399 -0.45272034 -0.04578793
1.2280535 -0.4483991 -0.024891218
1.2643085 -0.47238535 -0.0033710033
1.3519832 -0.44519553 -0.018059932
1.182683 -0.40906245 -0.055606127
1.2223809 -0.3987506 -0.050404646
1.3085214 -0.3901813 -0.036885809
1.341308 -0.39376903 -0.029696187
1.2435305 -0.3154861 -0.027199253
1.2809926 -0.34037957 -0.02745316
1.3255844 -0.35767856 -0.047634527
2.2161028 -0.33648348 -0.0098745739
2.231638 -0.31742728 -0.0099083791
1.1916574 -0.24899131 -0.0347616
1.2225966 -0.27583909 -0.03433663
1.2828907 -0.29533389 -0.0029300549
2.2305737 -0.29413539 -0.011601303
1.1781366 -0.21031347 -0.044517804
1.2088245 -0.21918826 -0.042508394
1.063619 -0.12836498 -0.048908897
1.0996957 -0.13990827 -0.046515334
1.168234 -0.16768606 -0.04892268
1.0150297 -0.075541839 -0.042036757
1.033594 -0.09433385 -0.026413297
1.0901595 -0.11471674 -0.015927669
0.99863392 -0.029924184 -0.029372152
0.011037486 0.014048136 -0.0049383775
0.99735785 0.02843827 -0.030347744
1.0298411 0.05323733 -0.0032486611
0.99942887 0.091646396 -0.031083729
1.0244205 0.069010474 -0.0059469659
0.99872202 0.14837725 -0.034386501
1.0278561 0.12329732 -0.0010266262
0.91483706 0.18120946 -0.00051525654
1.0057416 0.19301008 -0.035361335
1.0355358 0.21338594 -0.041460048
0.83144975 0.2994436 -0.05467096
0.85265803 0.27402177 -0.057920009
0.83067179 0.3409332 -0.03607361
0.84369135 0.31954035 -0.045085996
0.82894087 0.36434874 -0.040388208
0.84812832 0.36752558 -0.025038056
2.243603 0.52061379 -0.033868186
2.2550159 0.57083881 -0.030099159
2.2696614 0.63163537 -0.03237788
2.280534 0.60165346 -0.059228897
2.2698359 0.68796593 -0.022754202
2.2849629 0.69336849 -0.044117223
2.2742968 0.74252415 -0.010580691
2.2961977 0.75141287 -0.03842172
2.296654 0.811665 -0.027157392
2.3086481 0.87093222 -0.023559222
2.0944548 0.95004147 -0.0070169792
2.1125872 0.95072883 -0.029178595
2.2580161 0.91936332 -0.0041888077
2.300565 0.90838176 -0.013690731
2.0299845 1.0100244 -0.019784611
2.0721569 0.98539919 -0.028032385
2.1056788 0.97050667 -0.05545285
2.0030291 1.0217248 -0.0031779357
2.0490901 1.0282979 -0.038923372
1.1342641 -0.61787337 0.04196756
1.1640601 -0.61673629 0.029006341
1.1846405 -0.58998865 0.028900966
1.2297595 -0.56741363 0.027201816
1.2810814 -0.55471426 0.047010832
1.2538271 -0.52668768 0.012839786
1.288178 -0.51259947 0.02463734
1.3492374 -0.49770781 0.033815917
1.3805984 -0.48641291 0.0073021506
1.3690681 -0.45458466 0.016830323
1.40416 -0.45402908 0.039269779
1.4514658 -0.44775587 0.047942724
2.1904132 -0.4402622 0.04878353
1.3090903 -0.3662647 0.010899268
1.3539845 -0.38668409 0.027157677
1.3943208 -0.40782866 0.042522691
2.2085745 -0.39053887 0.04186514
2.2261374 -0.36844653 0.025034577
1.2918797 -0.33278215 0.018725736
1.3321062 -0.32321075 0.035229854
2.209924 -0.34456754 0.056206577
2.2291093 -0.32640839 0.027414277
1.2940742 -0.29794267 0.0031841581
2.0868065 -0.24013348 0.023798196
2.2119839 -0.28252357 0.039354112
2.2264817 -0.29547703 0.035633516
2.0798838 -0.21190736 0.029761476
2.1000388 -0.21161313 0.014101371
2.0716412 -0.16937825 0.047437668
1.0405555 -0.072180167 0.010410229
1.0132451 -0.034794129 0.010710138
1.0343896 -0.025621433 0.025288103
0 0 0
1.0151508 0.01271871 0.0067727417
1.0430845 0.031196952 0.014380882
2.0994973 0.057063412 0.054122947
0.93990439 0.11374186 0.035171043
0.99584556 0.098569259 0.026749412
1.0375997 0.07672932 0.017250387
2.098238 0.071943358 0.054131702
0.89773422 0.1212174 0.012197837
0.92363745 0.14941584 0.031698126
0.94171852 0.20549712 0.03688493
0.96803844 0.21331891 0.014127698
0.99646378 0.25709715 0.044731751
2.2347829 0.53397632 0.0059834421
2.2468007 0.57674712 0.015915798
2.2478945 0.62945908 0.032869391
2.2567017 0.68781078 0.026589746
2.2676861 0.7467283 0.028330946
2.271925 0.78821892 0.03095115
2.2859352 0.82170498 0.027394643
2.2796698 0.87428129 0.051086441
2.2905991 0.8682844 0.028417552
2.0559363 0.95299333 0.0066856872
2.2494283 0.92402738 0.030911334
2.2937808 0.90362805 0.017987141
2.0238347 0.99589616 0.02523745
2.0468893 0.99329597 0.030346176
2.0175321 1.0289873 0.049774472
1.1322672 -0.61781794 0.075845659
1.1620746 -0.61389804 0.074624002
1.1787841 -0.5824399 0.08114481
1.234869 -0.56615204 0.084170245
1.285076 -0.54949111 0.080192596
1.3040476 -0.53306955 0.086959936
1.3494709 -0.51630342 0.084465638
1.397055 -0.49185738 0.087055854
2.1569941 -0.51478362 0.1165257
2.1786122 -0.48992157 0.10305687
1.4247106 -0.45543385 0.080017775
1.4597911 -0.44780356 0.10574041
1.503553 -0.42929208 0.11844341
2.1856737 -0.44821265 0.090643652
1.4188027 -0.39231265 0.072420098
1.448027 -0.41186276 0.086373009
2.1975582 -0.38954681 0.092106603
1.3635267 -0.34460381 0.06390731
2.2073014 -0.33484629 0.11035872
2.2260802 -0.33117187 0.081136554
2.2087228 -0.27794102 0.094810076
2.2218423 -0.2932733 0.087965071
2.0696418 -0.20170997 0.08489807
2.0756018 -0.15239102 0.088437691
2.0727651 -0.092345729 0.098170474
2.0971823 -0.032459635 0.10117003
2.1054811 -0.020407125 0.10905688
2.0959971 0.031656537 0.088007756
2.1077616 0.037202578 0.093927391
0.95704174 0.11687433 0.081402369
0.98602062 0.11086859 0.080453828
2.116302 0.092612691 0.089449473
0.93392491 0.15382433 0.086592078
0.9713586 0.12888697 0.10428257
2.1295698 0.14686537 0.09264309
0.93548256 0.2093087 0.089934468
0.94921517 0.2461158 0.094504021
0.98113614 0.2597793 0.089829057
1.0212946 0.27247462 0.066223979
2.2197051 0.62993991 0.091287516
2.229795 0.64027286 0.085776068
2.2464201 0.69067836 0.088968821
2.2553034 0.74759924 0.087163702
2.2645502 0.8080073 0.093041383
2.2838907 0.82245779 0.061966609
2.2676747 0.86852223 0.094908662
2.2827868 0.87850481 0.077552713
2.2478583 0.9268654 0.088476308
2.2815599 0.90494716 0.090199858
1.9773046 1.0090044 0.11484174
2.0113997 1.0039309 0.089482769
2.2444837 0.96153593 0.078362748
1.9991001 1.0245571 0.086299978
2.0446143 -1.0885786 0.17514695
2.0485654 -1.07374 0.1752664
2.1492913 -0.56041211 0.16491586
2.1679661 -0.54710841 0.15087375
1.4382719 -0.48693296 0.12099487
1.4831101 -0.50598788 0.13196537
1.5119933 -0.4999271 0.14452274
2.1568398 -0.51955706 0.15136045
2.1715403 -0.49966475 0.15296626
1.4832822 -0.45569199 0.12959492
1.5072075 -0.45486689 0.14144197
2.1580508 -0.45218605 0.17798513
2.1781385 -0.44652435 0.1520198
2.1895092 -0.39111945 0.1516711
2.2026508 -0.33243874 0.15045489
2.2047167 -0.27041337 0.15189961
2.2202914 -0.26677844 0.14028527
2.0695865 -0.19422425 0.14828585
2.2010202 -0.23301657 0.15984568
2.0685577 -0.14913341 0.14946109
2.0823402 -0.087592378 0.14989075
2.0821695 -0.02985087 0.15446985
2.1008744 -0.022631271 0.12593578
2.0922961 0.024651393 0.15808295
2.1089468 0.038783301 0.13889317
2.1176512 0.092626534 0.14932179
0.9468891 0.16528656 0.1445352
0.97328913 0.14803037 0.1507441
2.120182 0.15167738 0.15093362
0.93766642 0.20900685 0.14863795
2.112684 0.19123422 0.17108564
0.94856018 0.24981175 0.13970745
0.96978402 0.24816634 0.17120408
2.210623 0.63889331 0.16271466
2.2234135 0.65135431 0.14073558
2.2159107 0.67896032 0.16264772
2.2280977 0.69294202 0.14716147
2.2169855 0.72694844 0.17043793
2.2374902 0.75137848 0.14900477
2.2430966 0.80838448 0.15333238
2.2539196 0.87344956 0.14813004
2.0302658 0.95846188 0.16213208
2.0505619 0.95413262 0.16857296
2.2038848 0.95657766 0.15819813
2.2370706 0.93124044 0.15023546
2.0126073 0.99219501 0.15278646
2.0467098 0.96636492 0.1786197
2.2148116 0.96098995 0.12635204
2.011137 1.023559 0.14182287
2.0354114 -1.0899231 0.20494449
2.0469868 -1.0973803 0.21695878
2.0533273 -1.0526512 0.21050377
2.0605593 -0.99196982 0.21940333
2.0610533 -0.92700821 0.2164375
2.0725608 -0.86841661 0.21534632
2.0793931 -0.81140417 0.22054198
2.0806448 -0.75320107 0.22809696
2.107713 -0.72622991 0.23734529
2.0943685 -0.69220239 0.23294868
2.1062946 -0.68824613 0.23670229
2.1081383 -0.62641573 0.23468719
2.1319916 -0.56952995 0.21525526
2.1508214 -0.51519263 0.21594204
2.1728191 -0.49532291 0.19494422
2.1587963 -0.46838337 0.19873649
2.1713052 -0.45089254 0.21175593
2.1574695 -0.40177813 0.22218613
2.1769896 -0.39084256 0.20779642
2.1896687 -0.33179787 0.20592821
2.1904788 -0.26960143 0.20650813
2.0657713 -0.18922116 0.1990187
2.1870444 -0.22377454 0.21977459
2.0584068 -0.15013146 0.2109834
2.0373812 -0.075299755 0.23485664
2.0642972 -0.088140793 0.21082333
2.0785892 -0.026582818 0.21006928
2.081356 0.031136757 0.211184
2.1006982 0.056939058 0.18273814
2.0803239 0.087104522 0.21511176
2.1050422 0.10120699 0.19738807
0.94570947 0.17442557 0.18523937
0.98333043 0.16569914 0.18536641
2.0956299 0.16015144 0.21707366
2.109014 0.14861445 0.20462266
0.95453614 0.19912881 0.18525253
0.96366984 0.20020881 0.18678251
2.0973418 0.1976034 0.21931934
2.1009374 0.19092262 0.19139192
2.202405 0.64530349 0.21254891
2.2072592 0.68997425 0.20981804
2.2085147 0.74257731 0.21330594
2.2243164 0.76660717 0.20673065
2.2165685 0.81802666 0.22308567
2.2247133 0.80497295 0.20502409
2.217284 0.84615576 0.23339525
2.2400734 0.86929774 0.20564725
2.0744054 0.95693278 0.18576378
2.1993699 0.94404352 0.20553418
2.2392743 0.919837 0.21033986
2.0323024 0.98425245 0.19696993
2.0641339 0.9703086 0.19844022
2.1833208 0.9685933 0.22318244
2.0972857 1.0597177 0.23120663
2.10274 1.0548468 0.23688424
2.1157856 1.1120428 0.22353765
2.0323753 -1.0976905 0.26656279
2.0472319 -1.0980692 0.28047174
2.0356853 -1.053967 0.27619678
2.0489421 -1.0485185 0.26835483
2.0490727 -0.99229872 0.27083012
2.0374196 -0.95135033 0.28631502
2.0571949 -0.93006712 0.26729438
2.0633547 -0.8707844 0.27142555
2.0766094 -0.8126415 0.27083859
2.0859823 -0.7531389 0.27218509
2.1059873 -0.7249099 0.25556451
2.0963099 -0.69245929 0.28086078
2.1043518 -0.68751049 0.26590315
2.0996091 -0.64467186 0.29646832
2.1095524 -0.63083655 0.27128917
2.1229613 -0.56867903 0.27086052
2.1336236 -0.50952721 0.27466688
2.1493208 -0.45534062 0.2792758
2.1637805 -0.44810411 0.24832249
2.1529355 -0.36874038 0.29518065
2.1678157 -0.39305857 0.26549089
2.1528606 -0.35309231 0.29504544
2.1744561 -0.32931757 0.26587728
2.1770606 -0.26766106 0.26662213
2.1581998 -0.19843748 0.29490829
2.1760015 -0.21689683 0.2662634
2.0296183 -0.14150372 0.27519387
2.0483277 -0.15069214 0.26304212
2.0346756 -0.096679442 0.2651386
2.0481615 -0.081284478 0.27446735
2.0345597 -0.046358496 0.28288049
2.0630343 -0.025902655 0.26846945
2.0623522 0.031426765 0.27218688
2.0716078 0.090713203 0.2718415
2.080215 0.15213776 0.27309963
2.1060064 0.13722339 0.24591145
2.0910487 0.20194434 0.27321416
2.1028795 0.22425371 0.26707733
2.1790054 0.64139795 0.27208641
2.1900103 0.69009757 0.26929319
2.201581 0.74952739 0.26762429
2.2207315 0.7214033 0.24234781
2.2064798 0.80742794 0.26987216
2.22351 0.83723736 0.25558293
2.210341 0.85861075 0.27947193
2.2252734 0.88464856 0.26174885
2.2071021 0.93361646 0.2667096
2.2332034 0.93511689 0.26954642
2.1439843 1.0086048 0.26671296
2.1843929 0.98201638 0.26077053
2.2234924 0.974832 0.28402188
2.0941176 1.0514431 0.27778736
2.1142597 1.0471401 0.26473644
2.1281269 1.1143006 0.25290284
2.1266236 1.1456585 0.25193706
2.0155053 -1.0972658 0.33078268
2.0257568 -1.0535042 0.33006537
2.0440106 -1.0444477 0.33015054
2.0306635 -0.99038422 0.32879883
2.0415399 -0.97679293 0.33827335
2.0330675 -0.94402313 0.32818413
2.0492818 -0.92315191 0.33071661
2.0541251 -0.87005782 0.32996988
2.0633056 -0.80893892 0.3299427
2.0733008 -0.74839842 0.3302049
2.0816522 -0.68742591 0.33025664
2.0940611 -0.63525045 0.33768818
2.1027818 -0.61897361 0.32202128
2.0940509 -0.56852061 0.3514542
2.1075585 -0.56887656 0.3280344
2.0963824 -0.53290522 0.34852013
2.1183667 -0.5068627 0.33164257
2.1268544 -0.44697946 0.33233386
2.1440482 -0.38961294 0.3339937
2.1618907 -0.3992821 0.30702531
2.1494892 -0.33133036 0.33832106
2.1642416 -0.32059798 0.31640789
2.149806 -0.27073702 0.33983332
2.1681857 -0.27079469 0.31071779
2.1554811 -0.22763835 0.34007147
2.1721082 -0.20789129 0.32470882
2.024595 -0.1349586 0.32869619
2.0425823 -0.14891927 0.32306981
2.153456 -0.17776953 0.34048313
2.1636379 -0.17870757 0.35243842
2.0256779 -0.092198201 0.33304489
2.0447831 -0.079533994 0.3110995
2.0302804 -0.036461484 0.33181065
2.0440927 -0.018785208 0.32584897
2.0213859 0.015009263 0.35161752
2.0549927 0.033437029 0.32729688
2.0374076 0.068323888 0.34857759
2.0542946 0.092020251 0.32832405
2.070117 0.15012278 0.33318469
2.078747 0.21147251 0.3316347
2.07939 0.25220981 0.33237514
2.1387246 0.59573126 0.35281122
2.1569552 0.62858051 0.3389073
2.1660185 0.63701457 0.32935405
2.1558127 0.69696224 0.35084096
2.1750028 0.69164312 0.32483971
2.1798623 0.75187361 0.32971227
2.1879945 0.81032205 0.33172622
2.1980536 0.86762524 0.33004326
2.2070587 0.92159635 0.33627582
2.227066 0.9442423 0.31408525
2.2184935 0.97817588 0.35138434
2.2240014 0.99378926 0.32711509
2.2316957 1.0507047 0.33705679
2.2304835 1.0970238 0.34869379
2.2535138 1.1739706 0.35642919
2.2746367 1.2330855 0.34392881
2.2868383 1.252316 0.34034449
2.2730389 1.2640117 0.33888519
2.2813492 1.2752039 0.34604973
2.0232682 -1.0959841 0.38973889
2.0212336 -1.0488538 0.39047566
2.0257928 -0.98968965 0.39205891
2.0416501 -0.980681 0.37156481
2.0328722 -0.93107432 0.39753586
2.0442135 -0.93431908 0.37413368
2.0334125 -0.87749648 0.39034244
2.044549 -0.86810708 0.38669845
2.0351357 -0.82354057 0.39965984
2.0462027 -0.80714858 0.38299337
2.0561514 -0.75171822 0.38801226
2.0709968 -0.68919671 0.39062482
2.0822451 -0.62901515 0.38979205
2.1001 -0.63583821 0.36797091
2.0862498 -0.57114643 0.39185044
2.101233 -0.54238003 0.40741256
2.0932879 -0.51793009 0.39230266
2.1050007 -0.49317846 0.37993225
2.0957284 -0.47126773 0.40658203
2.1119962 -0.44268841 0.39011353
2.1249511 -0.3867701 0.39226791
2.1360173 -0.33070645 0.39229146
2.1422706 -0.2690984 0.38567987
2.1467841 -0.21552332 0.38934904
2.1664081 -0.18943331 0.36852342
2.0256729 -0.13111164 0.37631336
2.1537135 -0.1679489 0.39784127
2.1656494 -0.17904504 0.37354335
2.0086427 -0.089250371 0.3899841
2.0165777 -0.02763395 0.39061439
2.042166 -0.012702254 0.36212501
2.0273736 0.026459968 0.3983542
2.0491717 0.045078594 0.37914875
2.0330651 0.084998935 0.3970494
2.0505266 0.092167243 0.38474488
2.052542 0.14915814 0.38962147
2.0582087 0.20886229 0.39130867
2.0774217 0.26864573 0.39281893
2.0774777 0.32292134 0.41018859
2.0616674 0.37465253 0.41959697
2.1081195 0.52069503 0.40883249
2.1291461 0.57394034 0.39474621
2.1423492 0.63224685 0.39104101
2.1625991 0.64426887 0.36119306
2.1529512 0.68639416 0.38852155
2.1633313 0.70843005 0.38544279
2.153048 0.74393016 0.40882269
2.1693115 0.75379235 0.38151154
2.1722577 0.80887383 0.38961154
2.1861777 0.87213045 0.38824266
2.1947312 0.93179166 0.3910073
2.2039454 0.98903215 0.39423952
2.2248278 1.0113333 0.36987346
2.2127376 1.0382541 0.39931321
2.2300143 1.055527 0.38033253
2.2180462 1.1062188 0.41078228
2.2339942 1.105816 0.38936469
2.2438867 1.1639327 0.38972238
2.2595785 1.226424 0.3916676
2.2846456 1.2581855 0.36333621
2.2745135 1.2722242 0.37385967
2.0064609 -1.0918714 0.45211262
2.0037675 -1.0502733 0.44889593
2.0127087 -0.99165505 0.44760513
2.0183926 -0.93123555 0.44851518
2.022649 -0.87265235 0.44981924
2.0334377 -0.81967837 0.44952187
2.0463572 -0.79694718 0.44203433
2.0335186 -0.75133997 0.46258858
2.0451591 -0.74962819 0.44396135
2.0368209 -0.71348727 0.4748593
2.0542035 -0.6907745 0.44773149
2.0632546 -0.63262844 0.44882816
2.0725946 -0.57234776 0.44838625
2.0791883 -0.51191676 0.44843876
2.0836794 -0.45188031 0.44901976
2.101249 -0.42861512 0.42594644
2.0959203 -0.39608553 0.46677694
2.1076019 -0.39026344 0.4409093
2.0987282 -0.35722896 0.47559804
2.1163871 -0.33084518 0.45131376
2.1239741 -0.27282274 0.44985723
2.1317098 -0.21221854 0.45024279
2.1375358 -0.16420931 0.44825649
1.9781437 -0.079993993 0.46214983
1.9943039 -0.082348011 0.44470313
2.0023112 -0.026964508 0.45184827
2.004463 0.029989202 0.44861504
2.0163472 0.089857139 0.44887602
2.0255153 0.14844555 0.45563301
2.046174 0.14667903 0.43204448
2.0341001 0.20043436 0.4572798
2.0505507 0.21209571 0.44364539
2.0367506 0.26167989 0.46513242
2.0557091 0.27045858 0.44622174
2.0602307 0.32976466 0.4526791
2.0742357 0.38801745 0.45486271
2.0861595 0.44707182 0.46285301
2.1035345 0.45736572 0.44908333
2.0927303 0.49473181 0.46606031
2.1098254 0.5129993 0.44599819
2.0994821 0.58593524 0.47343981
2.1130137 0.56808084 0.44847623
2.1291251 0.63084304 0.45174098
2.1443393 0.68956584 0.4502621
2.148371 0.74796695 0.45257577
2.1516912 0.79937351 0.46014291
2.1680605 0.81439042 0.43616518
2.156487 0.86044139 0.46456701
2.1692519 0.86760461 0.44526824
2.1808879 0.92855138 0.45132518
2.1903999 0.99296308 0.44975293
2.2092116 1.0512578 0.45138294
2.2212932 1.0660836 0.4379262
2.2119532 1.1098596 0.45645404
2.2235456 1.1101153 0.44551602
2.2135875 1.152609 0.45835805
2.2347438 1.1693782 0.44758642
2.2390308 1.218853 0.44539422
1.9701812 -1.0823905 0.5083617
1.9933975 -1.088115 0.48331124
1.9739318 -1.067597 0.51424563
1.9990232 -1.0472314 0.50443739
1.9747615 -0.97185373 0.53522754
2.006072 -0.99145955 0.50908071
2.0078962 -0.93286109 0.51090401
2.0123115 -0.86841184 0.51234865
2.0220439 -0.81052387 0.50801945
2.0257552 -0.74950641 0.51336586
2.0409617 -0.76031321 0.48993796
2.034107 -0.69058627 0.51842684
2.044106 -0.6867128 0.49533549
2.0358431 -0.64721847 0.528548
2.0512526 -0.62712115 0.50441229
2.0377738 -0.57066041 0.53701097
2.0538194 -0.56860673 0.50800186
2.0646546 -0.5099569 0.50831246
2.0703084 -0.45035955 0.50747502
2.0813923 -0.3910321 0.50900692
2.0886328 -0.33440277 0.51553071
2.1078346 -0.32258713 0.49319416
2.0945003 -0.2719574 0.5352245
2.1085875 -0.27216217 0.50870436
2.1157737 -0.21076134 0.51052672
2.1233642 -0.15143839 0.50908393
1.9725626 -0.070297107 0.50989741
1.9864286 -0.076200701 0.50418478
2.1018453 -0.11455309 0.53588074
1.9770614 -0.029401354 0.52045655
1.9889795 -0.026003735 0.5083791
1.9964529 0.031155057 0.51006413
2.0023532 0.088470846 0.50810933
2.0082972 0.14579922 0.51019084
2.0222178 0.20710957 0.51547527
2.0429354 0.21069665 0.48909789
2.027771 0.26495361 0.50971317
2.0460608 0.26703164 0.50457406
2.0374403 0.31063461 0.51477343
2.0486672 0.33268571 0.509951
2.0587883 0.39133275 0.51099402
2.0737212 0.45008835 0.51019233
2.086257 0.50830823 0.51196492
2.1028163 0.53249764 0.48647925
2.092109 0.56874961 0.5136345
2.1032712 0.57850111 0.48791185
2.097333 0.60782802 0.51873845
2.1143718 0.63469177 0.50609076
2.1221573 0.6904825 0.51027119
2.1307306 0.7516734 0.51069194
2.1446607 0.81413555 0.51062644
2.1619306 0.82028592 0.49451327
2.1524255 0.87145895 0.50977141
2.1613276 0.87673217 0.48560232
2.1591585 0.91072077 0.49726599
2.1687417 0.93179321 0.51007998
2.1738465 0.98728693 0.5088436
2.188782 1.0484394 0.5112685
2.2202082 1.0671159 0.48261252
2.1960003 1.1099844 0.51083004
2.2226341 1.0887374 0.48767719
2.1988237 1.155992 0.50121176
2.2220242 1.1790535 0.49868152
1.9735938 -1.0387789 0.56899118
1.9994714 -1.0426524 0.55932862
1.9786608 -0.99286628 0.59304363
1.9923332 -0.9909727 0.57244849
1.974498 -0.92616469 0.58890182
1.9965161 -0.92691094 0.56819403
1.9777899 -0.8724941 0.54709792
1.9976307 -0.86544967 0.57243472
2.0096464 -0.80782145 0.57221878
2.0178106 -0.75061589 0.57452083
2.027297 -0.6916967 0.56938362
2.0403693 -0.68598026 0.55133611
2.0329959 -0.63680875 0.57596499
2.0447066 -0.61399424 0.56047601
2.0341411 -0.5742873 0.57355303
2.0456703 -0.56022847 0.57282448
2.0358069 -0.5239808 0.58786237
2.0553873 -0.50613546 0.56745523
2.0395744 -0.4708201 0.59602755
2.0555437 -0.4468585 0.56915081
2.0625615 -0.38711017 0.56900388
2.0693882 -0.32876837 0.56985039
2.0846412 -0.27095351 0.56892312
2.101105 -0.24681132 0.56770742
2.0919542 -0.21551415 0.58168024
2.1098483 -0.2111467 0.56447613
2.0984168 -0.16522259 0.56627446
2.1145744 -0.15134861 0.56862319
1.9741062 -0.064892277 0.55545515
1.9837668 -0.075774178 0.56077087
2.1089268 -0.11119287 0.57823008
1.9651874 -0.029914504 0.57124877
1.9952791 -0.0078761596 0.5482356
1.9697131 0.027828638 0.57814878
1.9873616 0.034483857 0.55527562
1.9709626 0.070418298 0.57275808
1.9933167 0.091985792 0.56745154
1.9794292 0.12625405 0.59408832
1.9972217 0.14981896 0.56953359
2.0049415 0.20731358 0.56977654
2.0189242 0.26738665 0.57096195
2.0407293 0.28805864 0.54392827
2.0300057 0.3245694 0.56913102
2.0429811 0.34925425 0.58651662
2.0385725 0.38592416 0.59235823
2.0527785 0.39189094 0.56953979
2.0377054 0.44124123 0.59777898
2.0587041 0.45105615 0.57039523
2.0694203 0.51085442 0.56924391
2.0812755 0.56793386 0.56931961
2.0911999 0.62345183 0.57666475
2.1106758 0.64496124 0.55650091
2.1091037 0.68979049 0.56709415
2.1221833 0.75214368 0.57218093
2.1310747 0.81282812 0.56994891
2.1435876 0.8697297 0.57110864
2.1454172 0.92389804 0.57536572
2.1638818 0.93282109 0.54911977
2.1541407 0.98330551 0.57462615
2.1643112 0.98443919 0.56272483
2.1581621 1.0301058 0.57872075
2.1727452 1.0495323 0.56684339
2.1811752 1.1058375 0.56544203
2.1874731 1.1450558 0.55186522
1.9740623 -1.0239826 0.60854751
1.9858291 -1.0246005 0.61191297
1.9743972 -1.0069315 0.62491137
1.9916013 -0.98891318 0.6257866
1.9750857 -0.92342407 0.63367128
1.9902925 -0.93268037 0.62520701
1.9679538 -0.87230575 0.64514506
1.9977258 -0.86434692 0.62608904
2.0004487 -0.80728805 0.63156372
2.0118337 -0.74871904 0.63338327
2.0195146 -0.68938088 0.62838757
2.0197427 -0.63062906 0.63204044
2.0410163 -0.60464048 0.60024917
2.0234323 -0.56838506 0.63134921
2.03233 -0.50904298 0.63005477
2.0452192 -0.49551922 0.6270926
2.0379164 -0.46673617 0.64164442
2.0487676 -0.44548601 0.6300149
2.039485 -0.40117055 0.64047438
2.0533845 -0.38981751 0.62989569
2.0616786 -0.32860982 0.63294894
2.0704696 -0.27052692 0.630422
2.0824161 -0.21213122 0.63077462
2.1061163 -0.18934584 0.61814266
2.090019 -0.16035172 0.64720345
2.1066477 -0.15083987 0.6234625
1.973496 -0.060361806 0.60605389
2.0891743 -0.097583383 0.64258736
2.1041579 -0.10899098 0.62235278
1.9553043 -0.02536498 0.62938863
1.9616691 0.030922642 0.63126147
1.9695102 0.085867345 0.63079506
1.9855671 0.097852863 0.61214644
1.9724427 0.13702017 0.63670206
1.991683 0.1517534 0.62918478
1.9760424 0.21072331 0.63900948
1.9911766 0.21131828 0.62824255
2.0025756 0.27051583 0.62957138
2.0183113 0.32912904 0.63075119
2.0271611 0.38682985 0.62823898
2.0458524 0.40636989 0.62992376
2.0314603 0.43124363 0.63441855
2.0547318 0.46495962 0.63126552
2.0396147 0.48735967 0.65125394
2.0592184 0.51088172 0.62973195
2.0693974 0.5715698 0.62908113
2.0849283 0.63102317 0.63110608
2.0947354 0.68532765 0.63331598
2.1041632 0.69622332 0.62645501
2.0977004 0.74366421 0.63206273
2.1097076 0.75176543 0.62612641
2.1218371 0.81066328 0.6302681
2.1346674 0.87186205 0.63002646
2.1349492 0.92907852 0.62950903
2.1445885 0.98625004 0.63824874
2.1688051 1.0072711 0.61914355
2.1403337 1.031288 0.63045979
2.1753399 1.0455997 0.61291075
2.183784 1.1032168 0.60520059
1.9976515 -0.93218422 0.67469984
1.972396 -0.86710125 0.69569534
1.9942855 -0.86758447 0.68951052
1.9704468 -0.81132078 0.68939584
1.9914576 -0.80778593 0.68946391
2.0018632 -0.74993068 0.69116515
2.0128512 -0.68885893 0.68881595
2.0152209 -0.63072979 0.69083673
2.016845 -0.56986046 0.69148141
2.0274148 -0.50667405 0.69106191
2.0436652 -0.53521389 0.66087341
2.030838 -0.44818765 0.68861967
2.0492468 -0.43992057 0.68593591
2.034266 -0.37989226 0.69146925
2.0463769 -0.3953056 0.69017369
2.0293591 -0.34990871 0.67214489
2.0541875 -0.32781377 0.6917963
2.0597601 -0.26690173 0.69099939
2.0652044 -0.20897305 0.69122469
2.0780907 -0.15126537 0.69291174
2.1017382 -0.13597153 0.66645253
2.082953 -0.090967469 0.69306803
1.9587559 -0.016548732 0.68744045
1.9606826 0.030183006 0.69079459
1.9637676 0.085154444 0.68958414
1.9852257 0.10305209 0.67344892
1.9700207 0.14611271 0.69238788
1.984549 0.15414526 0.68415451
1.9769095 0.20365083 0.70355105
1.9863052 0.21702278 0.6828388
1.9946201 0.27156964 0.69035774
2.0098205 0.33150366 0.69231486
2.0200086 0.3896935 0.68880129
2.0319397 0.44789451 0.69369394
2.0453172 0.45659867 0.6789974
2.0374799 0.51110154 0.70130664
2.0508344 0.50998241 0.68682796
2.0609033 0.56972122 0.69062096
2.0746355 0.63127381 0.68943065
2.0858006 0.68913943 0.68689358
2.100302 0.7071318 0.71099222
2.0869005 0.74195284 0.69542915
2.1088331 0.75980759 0.67737365
2.0990148 0.82827133 0.71645182
2.1112466 0.80814326 0.69020027
2.0953305 0.84918267 0.7163471
2.1211774 0.87045354 0.68926287
2.1229959 0.9264465 0.68847221
2.1397817 0.98234171 0.67371744
2.135931 1.0277904 0.66482311
1.9898762 -0.84905148 0.73696947
1.9715996 -0.81108642 0.73595768
1.9904456 -0.80416864 0.73182923
1.976374 -0.7590186 0.7368595
2.0072064 -0.74581784 0.74018013
1.9798142 -0.6854381 0.75880402
2.000906 -0.68729424 0.74145359
2.0047929 -0.63242126 0.74678105
2.0149801 -0.5697394 0.74353105
2.021847 -0.50680286 0.74734056
2.017765 -0.44816706 0.74502999
2.0417006 -0.46494773 0.72063208
2.0279903 -0.39122063 0.74614167
2.0415127 -0.36427698 0.75984734
2.0361571 -0.3380219 0.75599462
2.0514965 -0.32860264 0.74587435
2.0325036 -0.28616366 0.7548911
2.0535986 -0.26765069 0.7456286
2.0593572 -0.21028481 0.75208181
2.0656807 -0.15130895 0.74898797
2.0752559 -0.089547597 0.7525773
1.945236 -0.010715645 0.72462398
2.0657644 -0.051372595 0.75172722
1.9563121 0.032318957 0.7325989
1.9720455 0.089019574 0.73555291
1.9826587 0.080677092 0.72823948
1.9692627 0.14760447 0.73631513
1.984304 0.1454643 0.72967005
1.9745001 0.21347551 0.73714203
1.9843181 0.19586429 0.73736352
1.9721541 0.25324547 0.74424869
1.993374 0.27119964 0.74012488
2.010149 0.327885 0.74480432
2.0160747 0.39072889 0.74890876
2.028235 0.45110399 0.74694747
2.041621 0.42870957 0.73318958
2.0351191 0.51589942 0.74618787
2.0468855 0.50333279 0.75773954
2.0347893 0.55178446 0.75847417
2.0524349 0.57779002 0.75037497
2.0644655 0.63299388 0.74529523
2.0780559 0.69083691 0.74705452
2.0903358 0.75141531 0.75363714
2.1015069 0.74432248 0.73753792
2.0910141 0.79717225 0.75725842
2.1078722 0.81029826 0.73838615
2.095962 0.8505004 0.73837817
2.1170595 0.87547797 0.73453659
2.1199796 0.91813117 0.7315073
2.0394576 -0.374634 0.78039289
2.0419581 -0.35477117 0.78085148
2.0599418 -0.24580923 0.78550488
2.0623162 -0.19537683 0.78572458
2.0608666 -0.16489361 0.7848627
2.0634415 -0.084178485 0.78537065
2.0516744 0.51511782 0.78232551
2.0318851 0.5521183 0.78717291
2.0485909 0.58774132 0.78431892
2.0662022 0.64029682 0.78246677
2.0724366 0.6884377 0.78703856
2.0867803 0.74755102 0.78917104
