# .PCD v0.7 - Point Cloud Data file format
VERSION 0.7
FIELDS x y z
SIZE 4 4 4
TYPE F F F
COUNT 1 1 1
WIDTH 1486
HEIGHT 1
VIEWPOINT 0 0 0 1 0 0 0
POINTS 1486
DATA ascii
2.0678201 0.39075378 0.50561148
2.0559478 0.40813607 0.50995755
2.064137 0.42750672 0.50732732
2.0776134 0.44396147 0.50925106
2.0802019 0.45154306 0.5169208
2.0781155 0.46142796 0.51668304
2.0850165 0.46971682 0.51169705
2.0782199 0.48722956 0.51227462
2.0806375 0.48779291 0.512869
2.0906117 0.51089197 0.51070374
2.0881252 0.5301286 0.50860596
2.0903001 0.55268031 0.5066843
2.0906582 0.57387757 0.50741541
2.0948398 0.59091139 0.50891149
2.097254 0.60755396 0.51000571
2.1027555 0.6251806 0.51185131
2.11713 0.6435588 0.50700808
2.1164098 0.66861469 0.50767761
2.1185119 0.69104004 0.50891161
2.1221802 0.684735 0.50248164
2.1278574 0.71412539 0.51006418
2.1247387 0.73507667 0.51009357
2.1287329 0.75303566 0.51163423
2.1334074 0.77134621 0.51334858
2.142859 0.79117459 0.50547969
2.1465216 0.80939806 0.50695443
2.1452262 0.83146518 0.5074842
2.142611 0.84742618 0.507514
2.1564775 0.87000376 0.51141667
2.1540329 0.88994163 0.509839
2.1649814 0.91355145 0.50951362
2.1640158 0.93052626 0.50996566
2.169471 0.95012915 0.50645119
2.1720524 0.96881008 0.50773644
2.1673145 0.9901607 0.50756586
2.1799991 1.0138879 0.51676154
2.1821864 1.014473 0.50620121
2.1816125 1.0263042 0.51208305
2.1851757 1.0477948 0.51187366
2.1795657 1.0613506 0.51862174
2.1897981 1.0697291 0.50632614
2.1937602 1.0919235 0.5117929
2.2005923 1.0827395 0.50167418
2.1722381 1.1057547 0.51890504
2.1813302 1.1099002 0.50991368
2.209197 1.1114192 0.50741661
2.1714978 1.129288 0.51419628
2.1875961 1.1252083 0.51187336
2.2079492 1.1351594 0.50532079
2.1946421 1.153026 0.50891048
2.203073 1.144919 0.50471622
2.1863775 1.1609291 0.5075233
1.9770101 -1.0871477 0.53048009
1.9719479 -1.0678527 0.52842939
1.9928036 -1.0620285 0.52301115
1.9786036 -1.0549568 0.52950084
2.0032163 -1.0511887 0.53018773
1.9891398 -1.0273139 0.52580595
1.9921519 -1.0143371 0.52769798
2.0049109 -1.0076625 0.52368069
1.9958909 -0.99268031 0.53112608
2.0056629 -0.98443907 0.52634746
1.9747615 -0.97185373 0.53522754
1.9907587 -0.96345633 0.5388611
2.0063448 -0.97028458 0.52766281
1.9950824 -0.94905496 0.53425312
1.9886242 -0.92982441 0.53189123
2.004935 -0.92616868 0.52557313
2.0103645 -0.91246033 0.52635974
2.0085514 -0.891298 0.52816254
1.9864792 -0.87564343 0.53429437
2.011065 -0.86972398 0.52489859
1.9970647 -0.85368192 0.53609788
2.0088012 -0.8458187 0.52854413
2.0212231 -0.85262465 0.52675045
2.0160191 -0.83462334 0.5299176
2.0229733 -0.83023882 0.52806753
2.012713 -0.80691576 0.53319156
2.0021005 -0.78686225 0.52983201
2.0105305 -0.7712549 0.53239024
2.021606 -0.76260775 0.5287441
2.0184054 -0.75128293 0.53773004
2.0225055 -0.74553508 0.53177381
2.0193763 -0.72542053 0.53709304
2.0238764 -0.72665477 0.52809447
2.0277934 -0.70727426 0.53351951
2.0377176 -0.68845069 0.52824128
2.0316973 -0.66506392 0.53145128
2.0345247 -0.64697409 0.5333041
2.0473287 -0.62816101 0.52742666
2.0534167 -0.61088377 0.52672994
2.0396793 -0.58147943 0.53779131
2.0506532 -0.59043932 0.52854592
2.0368209 -0.56525087 0.5366208
2.0478258 -0.56616896 0.52582836
2.0420136 -0.54600149 0.53234136
2.0529263 -0.5300042 0.53298181
2.0613811 -0.52493483 0.52132696
2.0653419 -0.51062393 0.52707374
2.0559647 -0.48311853 0.53942299
2.0671847 -0.49225152 0.52881449
2.0551584 -0.47271293 0.53897858
2.0684512 -0.46858692 0.52861118
2.0729558 -0.45074564 0.52763206
2.0683866 -0.42929631 0.52605844
2.0714037 -0.4085722 0.52946365
2.0784693 -0.39215627 0.52614599
2.0863953 -0.38698411 0.53488815
2.0783257 -0.36997014 0.5223074
2.0854805 -0.37147588 0.53438807
2.0771229 -0.35471451 0.53200704
2.0868766 -0.34944415 0.52751571
2.0845468 -0.33042502 0.52836037
2.0788226 -0.3142198 0.52157336
2.0928233 -0.30968416 0.53183842
2.0899615 -0.29067266 0.53430343
2.1068463 -0.29286289 0.528211
2.0956609 -0.27619943 0.53555828
2.1054633 -0.27058491 0.53105003
2.098459 -0.2511211 0.53597867
2.1091485 -0.25226417 0.5283106
2.1095183 -0.23706119 0.53343236
2.121568 -0.22809921 0.53114522
2.1076725 -0.20627588 0.53270143
2.1226087 -0.21795194 0.53131276
2.1077073 -0.19101538 0.53258944
2.1285589 -0.17229837 0.52722663
2.1075654 -0.14527282 0.5322597
2.1243927 -0.15317625 0.52436572
2.1081347 -0.130096 0.53235823
2.1018453 -0.11455309 0.53588074
1.9739763 -0.066341214 0.52936262
1.9862939 -0.07316073 0.52938914
1.97435 -0.050522648 0.53270656
1.9830384 -0.04436608 0.52851391
1.9762816 -0.028355539 0.52674663
1.9852765 -0.022144139 0.53566217
1.9796839 -0.012520807 0.52442014
1.9932032 -0.0078537241 0.5329113
2.0005693 -0.0030796127 0.53980631
1.9915925 0.011342116 0.53254253
1.9943492 0.030558754 0.53336167
1.9967567 0.048222501 0.53574973
2.0108705 0.054976054 0.53293067
1.9969826 0.064258389 0.53427398
2.0050719 0.074149281 0.53154629
1.9974978 0.088307589 0.52475041
1.9964507 0.10754528 0.52958286
1.9959781 0.12439882 0.53209084
2.0082192 0.13239184 0.53293443
2.0089786 0.14696565 0.52835131
2.0140398 0.16680387 0.52992111
2.0157902 0.18485685 0.53228134
2.0267899 0.19232166 0.52859265
2.0192413 0.20636201 0.5318439
2.0233803 0.20677254 0.53292441
2.0145562 0.22545896 0.53094006
2.0141025 0.24009827 0.53106958
2.0212893 0.25077739 0.53312302
2.0273201 0.26466906 0.53326601
2.0427444 0.28979531 0.5310232
2.0378494 0.3123374 0.52856141
2.041157 0.30284941 0.52920103
2.0442283 0.32832563 0.5305137
2.0475876 0.34896094 0.53183419
2.0531666 0.37010124 0.5337491
2.051147 0.3899692 0.53371698
2.0525036 0.41042095 0.52948725
2.0584452 0.43710384 0.53168696
2.0630448 0.43109897 0.52586061
2.0671539 0.44908819 0.5290553
2.0747118 0.46620417 0.53141224
2.0751169 0.48181966 0.53195649
2.0816336 0.4937197 0.53391516
2.0786605 0.5087657 0.53879035
2.0844874 0.50992185 0.52992141
2.0882263 0.53344816 0.52808028
2.08916 0.55292487 0.52717239
2.0930946 0.5732854 0.52703458
2.0934987 0.59111094 0.52945328
2.0974917 0.60837603 0.53620398
2.1013222 0.61451048 0.52686471
2.1073608 0.62715209 0.53398424
2.1186354 0.64463657 0.52849466
2.1204662 0.65220273 0.52213264
2.1165054 0.66928285 0.5288325
2.1226406 0.66373301 0.52303177
2.1145127 0.6885339 0.52726901
2.1258359 0.71413213 0.53085291
2.1194804 0.73947299 0.5302816
2.124114 0.73005152 0.53102422
2.115979 0.74908608 0.52450585
2.1239066 0.752231 0.53712296
2.1312065 0.77127934 0.53422767
2.130127 0.79029894 0.5320034
2.1396015 0.80210757 0.53199774
2.1440961 0.81104046 0.52620465
2.1436865 0.83163738 0.52869987
2.1538134 0.85259676 0.53185272
2.1549468 0.87017119 0.53278989
2.1497476 0.88523245 0.5321933
2.1657505 0.90869564 0.52587318
2.1662664 0.93210059 0.52692592
2.1698351 0.95111382 0.52849376
2.1692553 0.96840358 0.52906716
2.1678164 0.98936296 0.53145236
2.1756842 1.0085341 0.53033555
2.1767371 1.0246772 0.52754915
2.1823061 1.0392017 0.52938735
2.187737 1.0475218 0.52536356
2.1841943 1.0640396 0.53085148
2.1987467 1.0870672 0.53130698
2.2027142 1.0968029 0.52510214
2.1709666 1.1116097 0.52996272
2.1947091 1.1054298 0.53493756
2.202518 1.1088742 0.52556801
2.1682231 1.1282915 0.53009254
2.1946168 1.1537074 0.52577364
2.0061212 -1.0645796 0.54691219
1.9691471 -1.0474577 0.55053967
2.0019732 -1.0457569 0.54508054
1.977849 -1.0339162 0.55385959
1.9977385 -1.0330243 0.55375689
2.0089991 -1.0311258 0.54964238
2.0040128 -1.0103683 0.5509479
1.9924901 -0.99172997 0.54556322
1.991671 -0.96816939 0.55287224
1.9918414 -0.94847852 0.55379355
1.9926853 -0.93268299 0.55335391
2.0075645 -0.9247883 0.54832071
1.9955107 -0.90196514 0.55791736
2.012326 -0.91238922 0.54559624
1.9989434 -0.89278495 0.55843467
2.0013087 -0.89337063 0.54887253
1.9777899 -0.8724941 0.54709792
1.9842943 -0.86452967 0.54340386
2.0042458 -0.8698352 0.55207819
1.988024 -0.85555393 0.54400414
2.0025139 -0.84605002 0.55241901
2.0117936 -0.82744443 0.55102378
2.0153642 -0.80883753 0.55431145
2.0150321 -0.78568131 0.55167693
2.0165634 -0.76700044 0.55309141
2.0183458 -0.74662191 0.55282164
2.0154738 -0.72984016 0.55148768
2.0135539 -0.71870095 0.5505988
2.0237601 -0.70831734 0.55119747
2.0162029 -0.69899315 0.55570072
2.0370157 -0.69184256 0.550659
2.0403693 -0.68598026 0.55133611
2.0353944 -0.66975033 0.55157518
2.0339267 -0.64751732 0.55355811
2.0386846 -0.63002151 0.55595678
2.0447757 -0.62796348 0.54382557
2.0452237 -0.61025953 0.54819143
2.0362368 -0.59112144 0.5473628
2.0425396 -0.59330016 0.55927604
2.0334537 -0.57240933 0.54865408
2.0443351 -0.56799746 0.55902433
2.0377195 -0.55043656 0.54661387
2.0475729 -0.54298031 0.55408144
2.0525942 -0.5287174 0.54989362
2.0582304 -0.51120234 0.54749763
2.0617082 -0.50501382 0.54140466
2.0519462 -0.48595116 0.55207282
2.0632327 -0.495105 0.54155618
2.0514226 -0.46891344 0.55493814
2.0643442 -0.46472695 0.54626691
2.058851 -0.45018664 0.55646902
2.0656896 -0.44792876 0.54453152
2.0555251 -0.42242074 0.55839998
2.0684848 -0.42982471 0.54658151
2.0593073 -0.40288174 0.55900419
2.0672538 -0.41092303 0.54758829
2.0696516 -0.38834363 0.54913652
2.0690448 -0.36896729 0.5506739
2.0695579 -0.34876642 0.5504663
2.0770504 -0.33459795 0.54192752
2.0905447 -0.33011758 0.55220866
2.069061 -0.30834603 0.55482841
2.0893221 -0.31110549 0.54472649
2.0779607 -0.29090595 0.54495484
2.0844567 -0.28518036 0.55342156
2.0887389 -0.27045047 0.54919374
2.0941195 -0.25082788 0.55036956
2.095638 -0.23062083 0.54538089
2.1111255 -0.22723967 0.5492987
2.1116776 -0.21204281 0.55454332
2.1205523 -0.217871 0.54122823
2.1096096 -0.19136938 0.54863518
2.107568 -0.17093965 0.55835438
2.1260347 -0.17230055 0.54749596
2.1147385 -0.15206026 0.55178249
2.1165419 -0.13074856 0.55006611
2.1086488 -0.11505188 0.55318135
1.9739666 -0.064840108 0.54724604
1.985925 -0.079626761 0.55055916
1.9750798 -0.046804313 0.55047071
1.9715832 -0.026766339 0.55147737
1.9680843 -0.0077394065 0.55543566
1.9952791 -0.0078761596 0.5482356
1.9725814 0.011265819 0.55187714
1.987679 0.011319484 0.54622972
1.9869235 0.030475747 0.55102772
1.9771018 0.054189283 0.55336839
1.9914664 0.048130911 0.55074424
1.9881303 0.068845257 0.55160815
2.0026205 0.074097142 0.54078507
1.9987223 0.088484794 0.55469382
2.0020647 0.088562228 0.54075873
1.9950312 0.11239737 0.54897153
2.0089145 0.10341854 0.5476988
1.9942101 0.12681235 0.54890615
2.0121346 0.14734451 0.54904753
1.9966195 0.17050585 0.55506551
2.0118952 0.16517001 0.54755765
1.9999698 0.19014062 0.55131853
2.0082903 0.18435554 0.54685521
1.9919196 0.20874542 0.54942268
2.0127251 0.20837049 0.55008209
2.0182285 0.22113463 0.54678649
2.0222669 0.23146756 0.55305725
2.0175886 0.24070026 0.54695535
2.0238721 0.24810095 0.5554561
2.0285733 0.26773393 0.55239242
2.0389977 0.28797483 0.55357623
2.0407293 0.28805864 0.54392827
2.0373483 0.30760601 0.54849631
2.0354946 0.32729167 0.54843628
2.0358415 0.34736109 0.5489977
2.0503864 0.37000743 0.55338198
2.0478678 0.39483976 0.55333209
2.0622873 0.38728276 0.55181879
2.0654762 0.41504738 0.54995495
2.057452 0.43736199 0.55188674
2.0636799 0.43167374 0.54651457
2.0559704 0.44727999 0.55177909
2.064425 0.44885603 0.54375684
2.0697408 0.46558848 0.55073047
2.07482 0.48745877 0.55268008
2.0787392 0.50397587 0.55418932
2.0836623 0.51547492 0.55061686
2.0756497 0.5293085 0.5541786
2.0844803 0.53111637 0.54092538
2.0752368 0.54489076 0.55456555
2.083019 0.55358571 0.54472727
2.0925932 0.57025564 0.54941767
2.0942743 0.58663106 0.55037391
2.0913267 0.60706937 0.55031705
2.098707 0.62539905 0.55806482
2.1085899 0.6279912 0.55010986
2.113903 0.64559829 0.54675627
2.1129227 0.66696036 0.54726845
2.1067114 0.6866951 0.54645377
2.1157818 0.70600939 0.5493865
2.1215272 0.7188881 0.55128098
2.1176147 0.73423541 0.55622393
2.1222291 0.72994387 0.54654104
2.1197417 0.74010456 0.54631954
2.1256673 0.75340605 0.55360609
2.1276934 0.77255946 0.55305916
2.1286151 0.79321194 0.55052209
2.1335039 0.8118248 0.55244285
2.1402001 0.81395942 0.54336292
2.1357474 0.82741427 0.54642683
2.1438408 0.83834028 0.55600911
2.1537123 0.85336035 0.55355883
2.1517191 0.86969221 0.55375391
2.1473663 0.88884491 0.55169123
2.1561849 0.91151166 0.55109411
2.1653209 0.90913284 0.54219902
2.1576266 0.92947459 0.55218673
2.1612294 0.93058133 0.54213285
2.1659055 0.95026255 0.54952705
2.1587386 0.97067124 0.55420089
2.1630986 0.96452421 0.54764128
2.1642919 0.99053037 0.5508554
2.1714232 1.0114801 0.55342627
2.17031 1.0287431 0.5539155
2.1845062 1.0287584 0.54054224
2.1927502 1.056838 0.54918849
2.2008002 1.0484061 0.54505676
2.1791315 1.0625144 0.55189449
2.1858702 1.0715501 0.54825747
2.1956584 1.090364 0.54944587
2.1735175 1.1156965 0.54925543
2.1912751 1.1044226 0.55093431
2.1847849 1.1378263 0.55654919
2.1799312 1.1474829 0.55587238
2.195015 1.1426287 0.54785812
1.9772322 -1.0667784 0.56025052
1.9793203 -1.0574296 0.57059461
1.9848852 -1.0491171 0.56655383
1.9748101 -1.0260035 0.57140106
1.9997338 -1.0235537 0.56413734
2.003263 -1.0364062 0.56560785
1.9933987 -1.0098512 0.57216585
2.0021069 -1.0082669 0.56408656
1.9876626 -0.98541135 0.57468283
2.0059743 -0.98327249 0.57430887
1.9916372 -0.97104591 0.5751121
1.9916981 -0.94753194 0.57241642
1.9904951 -0.92724782 0.5729357
2.0054717 -0.9280811 0.56156707
1.9945083 -0.90589625 0.57480568
2.0027637 -0.91626954 0.56549501
1.9967991 -0.89254761 0.57316238
1.9930254 -0.87158954 0.57028228
2.0015316 -0.86277807 0.578309
2.0031979 -0.8472631 0.57302618
2.0044785 -0.8282215 0.57090807
1.9974831 -0.81330323 0.57523477
2.0124378 -0.80856764 0.57395959
2.0203977 -0.80620933 0.57087922
2.0167782 -0.78907573 0.57438326
2.0203853 -0.79513419 0.56021333
2.0179958 -0.76840079 0.57393843
2.02476 -0.75152522 0.57341564
2.0214942 -0.73285168 0.57357287
2.014812 -0.71655065 0.57289416
2.0258863 -0.70637751 0.57211423
2.034718 -0.69170254 0.56713802
2.0348258 -0.6693967 0.5749625
2.0324519 -0.64946467 0.57196873
2.0365994 -0.6281271 0.56898522
2.0435359 -0.60763866 0.56679273
2.0272419 -0.58935976 0.57038271
2.0296199 -0.57977748 0.57074177
2.0446951 -0.57026196 0.57283705
2.0481613 -0.55038136 0.56637222
2.0348125 -0.52505249 0.57569784
2.0508404 -0.52706593 0.56645775
2.0591817 -0.51043111 0.57168764
2.0651946 -0.51162112 0.56302631
2.0574088 -0.4892962 0.56554854
2.0608144 -0.49539912 0.57174605
2.05373 -0.47002372 0.57604551
2.0614712 -0.4647696 0.57118219
2.0492344 -0.44687974 0.57257891
2.0490375 -0.42826641 0.57380623
2.0615997 -0.4289012 0.56527901
2.0562162 -0.40784413 0.57875502
2.0638621 -0.41073593 0.56721133
2.0573716 -0.38779211 0.57866502
2.0674822 -0.39108643 0.56778991
2.0571692 -0.36750507 0.57821864
2.0606282 -0.36789942 0.56892681
2.0643752 -0.35007647 0.57304478
2.0598161 -0.33261901 0.57832998
2.0687551 -0.32870063 0.5653168
2.0678596 -0.30844575 0.56989324
2.0748389 -0.29088053 0.56810468
2.0806382 -0.28482959 0.56271172
2.0867088 -0.27052575 0.5693121
2.0917485 -0.25257322 0.57218045
2.101105 -0.24681132 0.56770742
2.1099956 -0.2325341 0.56992173
2.0988805 -0.21107289 0.57714009
2.1016951 -0.21122286 0.56750739
2.1099439 -0.19164211 0.56953734
2.0984168 -0.16522259 0.56627446
2.1077163 -0.17283475 0.575764
2.1090147 -0.15252499 0.57250923
2.1150393 -0.13078384 0.56531119
2.1067982 -0.11000066 0.56825304
1.9720334 -0.060096871 0.5613755
1.9823279 -0.073205799 0.56757867
1.9529264 -0.050137285 0.57539523
1.965436 -0.04886378 0.570903
1.9632784 -0.026700404 0.57356024
1.9548935 -0.012402384 0.56629103
1.9667187 -0.0077561624 0.57459128
1.9708228 0.01125377 0.56605899
1.972724 0.027927756 0.56911844
1.9817826 0.035211112 0.57422274
1.9746718 0.054163754 0.56739563
1.9845531 0.044830255 0.57014072
1.970974 0.069313116 0.56938636
1.9937747 0.088359952 0.57313037
1.9898764 0.10743836 0.57219839
2.0077209 0.10829061 0.5623343
1.9908037 0.1277279 0.56969887
2.0069394 0.12280732 0.56227303
1.991874 0.14619847 0.57817298
2.0019085 0.1467751 0.56613243
1.9950405 0.1647267 0.57139164
1.9961776 0.18350266 0.56669337
2.007813 0.18620145 0.57332909
2.0073178 0.20561582 0.56850767
1.9990906 0.23893914 0.57176775
2.009948 0.22545111 0.5695734
2.0120859 0.25028217 0.57564372
2.0244298 0.2467065 0.56898195
2.0118675 0.26991984 0.5759744
2.0210812 0.2660417 0.56842887
2.0154378 0.29012588 0.57740265
2.0321918 0.28728276 0.56687069
2.0332942 0.30734459 0.56761074
2.0298524 0.32676563 0.56710994
2.0342395 0.34577787 0.56707782
2.0449882 0.3544243 0.57700765
2.0496504 0.3702842 0.57358229
2.0391223 0.39372703 0.57640535
2.0535483 0.38863456 0.56999123
2.0525298 0.41652501 0.57559359
2.0642526 0.41177392 0.56665784
2.0499358 0.43371302 0.57025003
2.061532 0.42821115 0.56295872
2.0633345 0.45438048 0.56932455
2.0585737 0.47918206 0.57393569
2.0636859 0.46990499 0.56987381
2.0556705 0.49559581 0.57023215
2.0636687 0.48525143 0.56518501
2.0786307 0.51479906 0.57006198
2.0811675 0.51513988 0.56034923
2.0582905 0.52045619 0.57516539
2.0682795 0.52970737 0.57124877
2.0669351 0.54686421 0.57491511
2.0857124 0.55844748 0.56813496
2.0873733 0.57472807 0.56911802
2.0769639 0.59283829 0.56181765
2.0879028 0.59094381 0.57504678
2.0874927 0.60844105 0.57207042
2.0937142 0.62977296 0.57270396
2.1108162 0.63976169 0.56164247
2.0961921 0.65025634 0.57585216
2.1079123 0.64968133 0.56126118
2.1069965 0.66579151 0.56690156
2.1027927 0.68613839 0.56658912
2.1106334 0.70873982 0.57122082
2.1205575 0.71911019 0.56703961
2.1158295 0.73418534 0.57175708
2.1145129 0.75005227 0.56671697
2.129339 0.76995856 0.56766331
2.1341453 0.79024106 0.56788361
2.1307335 0.8057754 0.5676626
2.1329055 0.83089185 0.56744868
2.1413131 0.82687479 0.57657772
2.1376715 0.84767014 0.56570804
2.1401067 0.8490513 0.57720304
2.1385655 0.87094772 0.57232213
2.1420388 0.86096388 0.57276261
2.135726 0.88096082 0.56662697
2.1434302 0.88455272 0.57955229
2.1372244 0.91058928 0.57913065
2.1531291 0.90511143 0.56646788
2.1362145 0.92738008 0.57961822
2.1469891 0.9255746 0.56585836
2.1559422 0.94658428 0.56346327
2.162261 0.94979393 0.57612044
2.1533725 0.97292018 0.57130247
2.1622112 0.96121341 0.57111382
2.1521971 0.98781639 0.56801367
2.1515961 1.0034707 0.57589972
2.163655 1.0085814 0.5680362
2.1590977 1.0300626 0.5679037
2.1632531 1.024462 0.57602113
2.1669614 1.05162 0.57076299
2.182569 1.0526687 0.56339598
2.1719487 1.0676366 0.56527001
2.176713 1.0923327 0.57495809
2.1846766 1.0897626 0.56555253
2.1714082 1.1137644 0.57467949
2.1877089 1.1094259 0.56715465
2.1694212 1.1245666 0.56912243
1.970391 -1.0427982 0.58797544
1.9907055 -1.0474843 0.58341497
1.9719335 -1.0292279 0.59117132
1.9793497 -1.0146981 0.58911628
1.985572 -1.0095551 0.58800155
1.9784312 -0.98558897 0.59435272
1.9890079 -0.99750614 0.58582681
1.987269 -0.96872598 0.5912379
1.9912081 -0.95176369 0.58950305
1.9771134 -0.93086225 0.58814162
1.990273 -0.92252928 0.58798641
1.9666517 -0.91207194 0.59118241
1.9900662 -0.90486592 0.59396303
2.0079279 -0.9198823 0.59269631
1.9941611 -0.88886452 0.59441978
1.9890275 -0.87380642 0.58556759
2.0028522 -0.87502307 0.59965622
1.9927315 -0.8560738 0.58923537
2.0023553 -0.84615761 0.59489465
2.0051267 -0.82958764 0.59498602
1.994122 -0.81078678 0.58778191
2.0049946 -0.80118573 0.59209275
2.0106211 -0.78755724 0.59311765
2.0128043 -0.76899314 0.59130239
2.0087442 -0.75009996 0.59370404
2.0266519 -0.74569428 0.58569169
2.0169759 -0.72703588 0.59769946
2.0247331 -0.72941029 0.58969569
2.0118413 -0.70930576 0.59049338
2.0242834 -0.70301819 0.58861852
2.0103958 -0.69859684 0.59480757
2.0328994 -0.69007385 0.58540446
2.0263894 -0.66561705 0.5913043
2.0291524 -0.64633954 0.59005779
2.031816 -0.62849718 0.59021151
2.046849 -0.62645876 0.58196729
2.0323758 -0.61222231 0.59291667
2.0442319 -0.60844982 0.58412033
2.0376911 -0.58974057 0.59542179
2.0347869 -0.57170647 0.59406775
2.0441554 -0.5671277 0.58626932
2.0378075 -0.54168057 0.59232205
2.0461674 -0.55138576 0.58722925
2.0352604 -0.52740884 0.59290785
2.0407014 -0.52178246 0.58745027
2.0394342 -0.51155329 0.59705502
2.0560327 -0.51011074 0.58625972
2.0533655 -0.48908377 0.59010696
2.0395744 -0.4708201 0.59602755
2.0484931 -0.46589747 0.59160638
2.0479279 -0.4471519 0.59270704
2.0456522 -0.42809248 0.59331828
2.0716388 -0.42654419 0.59374022
2.0703444 -0.41093254 0.59304017
2.0506628 -0.38688734 0.59214342
2.0540364 -0.36729038 0.59271705
2.0595717 -0.35322189 0.59915763
2.0637021 -0.34611207 0.58991361
2.0571768 -0.3324019 0.58784056
2.0642903 -0.32345358 0.58968073
2.0659811 -0.30856392 0.58992159
2.0774345 -0.29162332 0.58945537
2.0824409 -0.28544205 0.58385855
2.0756891 -0.26446056 0.59203023
2.082839 -0.27202651 0.58723634
2.0866234 -0.25055379 0.58974737
2.0871117 -0.22867119 0.59136611
2.1057067 -0.23737246 0.5844689
2.0891719 -0.21028374 0.59003043
2.0941727 -0.19557397 0.59129059
2.1131742 -0.18708086 0.59129566
2.114398 -0.17184725 0.59152234
2.1155083 -0.14974044 0.58819658
2.1138461 -0.12989873 0.58902586
2.1097291 -0.11030394 0.58990544
1.9767362 -0.06989634 0.58237112
1.9511667 -0.047003549 0.59112459
1.9623079 -0.050440233 0.58792531
1.958169 -0.028255967 0.59322649
1.9610955 -0.02196748 0.58758879
1.9592426 -0.0077510253 0.59685862
1.9688746 -0.0061938637 0.58666545
1.9599742 0.011202862 0.59714842
1.9698402 0.011239436 0.58537757
1.9575322 0.03486307 0.59163749
1.9681901 0.028683985 0.5898847
1.9713888 0.048422884 0.58899111
1.968577 0.063564934 0.58041698
1.9843171 0.068875775 0.59495914
1.9732912 0.082797602 0.58195764
1.9867715 0.089774549 0.59257966
1.983357 0.10722625 0.59009588
1.9794292 0.12625405 0.59408832
1.9813855 0.12630393 0.58478254
1.985528 0.14103948 0.59113622
2.0090709 0.15236735 0.59320426
1.9916207 0.17239286 0.59236586
1.9931628 0.19325513 0.59579951
2.0010755 0.19056566 0.5814566
1.9983782 0.20502308 0.59088767
2.0018859 0.20525217 0.5819298
1.9977951 0.23418963 0.591241
2.0044336 0.22344907 0.58631557
2.0068541 0.24656571 0.58743078
2.0067201 0.26947105 0.58953404
2.0042391 0.28879583 0.58922851
2.0178401 0.30558145 0.59353423
2.0243771 0.30628374 0.58027446
2.0183792 0.32382855 0.59243828
2.0223165 0.32585204 0.58014685
2.0334311 0.34939125 0.58723849
2.0409744 0.34408417 0.59602559
2.0385809 0.36885053 0.59597546
2.0426362 0.36936039 0.5869323
2.0384889 0.38396204 0.59635168
2.0445135 0.39168647 0.59145576
2.0380886 0.41423056 0.59708339
2.0502341 0.40955248 0.58672422
2.0376019 0.42934477 0.59738648
2.0480206 0.42947719 0.58667666
2.0534256 0.45107898 0.58878893
2.0612183 0.45456111 0.59453475
2.0379124 0.46503413 0.59856391
2.0551896 0.47366685 0.58828616
2.0573008 0.49477604 0.58953893
2.0711756 0.51354748 0.58878404
2.0590889 0.52124751 0.59606826
2.066211 0.52979034 0.59143072
2.0590351 0.54172117 0.58640176
2.0669754 0.5509702 0.59581858
2.0719633 0.56607145 0.59078228
2.0804296 0.56804341 0.58271885
2.0860901 0.58561999 0.59009331
2.0873191 0.60723007 0.59120166
2.0896478 0.62924731 0.59264475
2.0911052 0.64576244 0.59365857
2.1024771 0.65986222 0.59196842
2.1041257 0.67102075 0.58753526
2.1051118 0.68762863 0.58843553
2.109014 0.71071345 0.5903753
2.1143332 0.72894454 0.59250969
2.1182222 0.74149626 0.59940249
2.1248472 0.75065678 0.58720988
2.1169505 0.7631585 0.599958
2.1263235 0.77145833 0.58665609
2.1247439 0.79317605 0.58714163
2.1268735 0.8107515 0.58843017
2.1260221 0.82726389 0.58891535
2.1300445 0.84573615 0.59075642
2.1378984 0.86018169 0.59340096
2.1428726 0.87334555 0.5898127
2.1454651 0.89332658 0.5877077
2.1333921 0.90766972 0.5925262
2.1309385 0.93153727 0.59478271
2.1473603 0.94978058 0.5888797
2.1606283 0.97314286 0.59329045
2.156167 0.98666954 0.59094638
2.1660249 1.0106397 0.59083045
2.1572268 1.0301492 0.5895378
2.1616428 1.0204128 0.59018767
2.1640918 1.0490727 0.58842826
2.1644816 1.0689101 0.58482504
2.1770716 1.0992957 0.59213597
2.1804965 1.0891999 0.59810758
1.9740623 -1.0239826 0.60854751
1.9820254 -1.0275592 0.60068893
1.9743803 -1.0132437 0.60812938
1.9871697 -1.014058 0.60662812
1.9876943 -0.99274206 0.61092114
1.9871213 -0.97070563 0.60974044
1.9904799 -0.95066148 0.60976774
1.9736564 -0.92652774 0.60392755
1.9861832 -0.93294591 0.61799687
1.9755155 -0.9116171 0.60888308
1.9901168 -0.90252197 0.61775333
2.0067332 -0.90954566 0.6125282
1.9933639 -0.88765728 0.61290675
1.9971758 -0.87329209 0.61336803
1.9928774 -0.85009336 0.61115146
2.0012441 -0.84811223 0.60831898
1.9982319 -0.82608354 0.61676961
2.004034 -0.82800764 0.6082685
2.0019374 -0.80618471 0.61189091
2.0114832 -0.78881609 0.61391842
2.014281 -0.77061218 0.61570638
2.0099943 -0.74919784 0.61091077
2.0182199 -0.72289163 0.61327934
2.0229201 -0.73509914 0.6150943
2.0219595 -0.71031481 0.61560148
2.0077734 -0.69810325 0.60423899
2.028579 -0.68850505 0.60777307
2.0191112 -0.6608212 0.61638755
2.0288656 -0.67144018 0.60931021
2.021764 -0.64771944 0.6132862
2.0156548 -0.63860518 0.60439104
2.0263627 -0.6266554 0.61219054
2.019155 -0.60916662 0.61462706
2.0340867 -0.60811782 0.60867137
2.0410163 -0.60464048 0.60024917
2.0181413 -0.59858352 0.6139825
2.0332134 -0.58903885 0.61122018
2.0307395 -0.57122815 0.61166412
2.0332322 -0.54936385 0.61274803
2.0358133 -0.5264672 0.61180586
2.0344577 -0.51078457 0.61096787
2.056134 -0.50546587 0.6016314
2.0316522 -0.49480942 0.60971451
2.0437541 -0.48244363 0.61291277
2.0368841 -0.47049531 0.60547757
2.0488844 -0.46831995 0.6140343
2.0505414 -0.44829917 0.6140337
2.0495636 -0.42772484 0.61325049
2.053863 -0.40842035 0.61922336
2.0648162 -0.41021177 0.60696548
2.0517645 -0.38253084 0.61290812
2.0655544 -0.39518481 0.61202693
2.0520034 -0.36904731 0.61098385
2.0648828 -0.34929794 0.6109246
2.0561876 -0.32259387 0.60792184
2.0658154 -0.33413708 0.60576391
2.058917 -0.30800402 0.61362529
2.0760396 -0.2900871 0.60799539
2.0762773 -0.26986548 0.60778272
2.0703139 -0.24403003 0.61604798
2.0867827 -0.25257248 0.60885912
2.0782709 -0.22972858 0.61304665
2.0810323 -0.22988236 0.60348082
2.0876141 -0.21040435 0.61037302
2.0972936 -0.19276799 0.61474371
2.1098957 -0.18697485 0.60610223
2.1119566 -0.17181638 0.60657138
2.1112239 -0.15132254 0.60622418
2.1050789 -0.13159704 0.61169261
2.1021981 -0.11005122 0.60868901
2.0939085 -0.094428644 0.60625911
2.1016686 -0.094862834 0.61894929
1.973496 -0.060361806 0.60605389
1.9543856 -0.040844131 0.60510957
1.9644674 -0.045851342 0.61312735
1.9560291 -0.026694223 0.61053801
1.955718 -0.0061820876 0.61211711
1.9605342 -0.012518954 0.60704535
1.9573596 0.0064523667 0.61103857
1.9617748 0.015956949 0.61245191
1.9650844 0.028664539 0.61189443
1.9740404 0.051069725 0.60821253
1.9768788 0.068685129 0.60756671
1.9595031 0.091938734 0.61722004
1.977753 0.083065152 0.60301226
1.9851221 0.089809515 0.6119259
1.9753326 0.11169627 0.60257459
1.9860123 0.10589621 0.61236691
1.9759859 0.12611726 0.60294223
1.9845684 0.12671787 0.61548334
2.0051136 0.14897302 0.60869485
1.9914352 0.17064685 0.61321294
2.0003462 0.16153185 0.60077012
1.9864318 0.1944413 0.6120674
1.9925706 0.21453884 0.61928898
2.0045433 0.21071172 0.60781574
1.9953068 0.23892006 0.6005826
2.0024545 0.22810236 0.60851204
1.9994706 0.25913015 0.61224401
2.0078449 0.25028637 0.60955143
2.0069444 0.26978755 0.60718292
2.0134099 0.28718549 0.6136843
2.0130961 0.30819762 0.61138755
2.0130911 0.32020697 0.61773759
2.0345502 0.33329284 0.60920978
2.0352261 0.3484531 0.60978854
2.0361021 0.36873862 0.61057252
2.0328548 0.3882972 0.61014652
2.0321071 0.40835425 0.61049968
2.0493903 0.40631559 0.60008085
2.0334117 0.42885637 0.61149567
2.0574949 0.45915762 0.60395372
2.0625322 0.45023233 0.61547428
2.0452716 0.47694212 0.60103524
2.066051 0.466488 0.61700147
2.0548825 0.49463093 0.60434127
2.064656 0.4868851 0.61725372
2.0662122 0.50787497 0.61319339
2.0570319 0.52103525 0.60583317
2.0643485 0.52317816 0.61838382
2.0810087 0.53755105 0.61320573
2.0812683 0.55341005 0.61383373
2.0686922 0.57207739 0.60883921
2.076807 0.59428525 0.60880685
2.0809364 0.58997858 0.60456431
2.0882285 0.61001664 0.61435485
2.0852089 0.62863195 0.61245877
2.0983732 0.65560108 0.60835266
2.0986316 0.67021072 0.61253434
2.1013145 0.67068392 0.60267609
2.0971341 0.68036866 0.60721701
2.1083181 0.69486368 0.61086947
2.1087689 0.71140164 0.61166126
2.1070971 0.7327497 0.61208189
2.0986493 0.7574417 0.61614192
2.1032465 0.75147694 0.61003542
2.1203191 0.75328273 0.60044634
2.10956 0.772192 0.61442733
2.1210649 0.77573639 0.60158092
2.1170156 0.79115677 0.60652775
2.1133778 0.80671543 0.61159837
2.1229842 0.80991864 0.60354823
2.1345911 0.8295005 0.61111283
2.1350057 0.84835446 0.60842228
2.14849 0.8725639 0.60942835
2.145596 0.89229941 0.60773093
2.1366861 0.91725612 0.60652167
2.1451223 0.90957004 0.61386216
2.1277294 0.9287917 0.60651463
2.1273024 0.94743091 0.60001582
2.1436067 0.9551301 0.61557722
2.1492436 0.97298694 0.61423612
2.1538749 0.98253828 0.60854757
2.1716039 1.0080532 0.60879242
2.150723 1.033963 0.61015785
2.1669416 1.0236501 0.60833549
2.1787453 1.047353 0.61807054
2.1801255 1.0534809 0.6075204
2.1761205 1.0635271 0.60698164
2.1849046 1.0798374 0.60999113
2.1802735 1.0896108 0.60928631
2.1872947 1.1168227 0.60111487
1.9896328 -1.021642 0.62313706
1.971524 -1.0129017 0.62776971
1.99368 -1.0094504 0.63060898
1.9772873 -0.99464935 0.63883507
1.9861193 -0.99250472 0.62074542
2.0000646 -0.99456304 0.63520402
1.9940796 -0.97492647 0.62736094
1.9788342 -0.95209461 0.63724399
1.9883598 -0.95072651 0.62970477
1.9747643 -0.92865181 0.63492638
1.991562 -0.93601471 0.62996614
1.9778093 -0.91561586 0.6318171
1.9827296 -0.90530044 0.63109314
2.0017669 -0.90834111 0.63168216
1.9797367 -0.88819492 0.63452971
1.9894977 -0.88671201 0.62711269
1.9658566 -0.86637223 0.6344713
1.9914346 -0.87154222 0.62700248
2.0035684 -0.86614132 0.63031834
1.9931232 -0.84422511 0.63312465
2.0092998 -0.8576377 0.62646997
1.9945892 -0.82531488 0.63103062
1.9952453 -0.80628556 0.63212121
1.9971172 -0.79968339 0.62556881
2.006067 -0.7876417 0.63283342
2.0084395 -0.76747125 0.63270575
2.0142024 -0.74858445 0.6336621
2.0175719 -0.73427886 0.63925141
2.0237937 -0.73081625 0.63065118
2.0179884 -0.70979613 0.63498533
2.0221927 -0.70399487 0.62914878
2.0153227 -0.69138384 0.63177347
2.0280097 -0.69509882 0.62021881
2.0092864 -0.67373562 0.62931406
2.0142324 -0.65631568 0.62844598
2.0275993 -0.64881277 0.63903999
2.0131178 -0.63185662 0.62724781
2.0223074 -0.62082744 0.62618864
2.0140922 -0.61355186 0.63372636
2.0201206 -0.60984492 0.62516695
2.0173151 -0.59555054 0.63067645
2.0217752 -0.58976281 0.62499315
2.0166924 -0.57328749 0.63316816
2.0256791 -0.575472 0.62569392
2.0162897 -0.55767012 0.62743902
2.0234034 -0.54941672 0.62931669
2.0301387 -0.53284186 0.63187456
2.0287056 -0.51333445 0.6281274
2.0313163 -0.49026966 0.62997544
2.0396316 -0.47174612 0.62683135
2.0484543 -0.46620265 0.63188821
2.0482049 -0.44823551 0.62879509
2.0455432 -0.42744982 0.63264215
2.0397456 -0.40108559 0.63541073
2.0483975 -0.40937519 0.63135201
2.0473971 -0.38727614 0.6322816
2.0640965 -0.39516345 0.62195212
2.056241 -0.3684094 0.62423158
2.0602732 -0.36419114 0.63052541
2.066643 -0.34994796 0.62698352
2.0581794 -0.32356521 0.63946968
2.0706699 -0.33028951 0.62782037
2.0578699 -0.31330949 0.63402647
2.0614333 -0.30375332 0.63494766
2.048779 -0.29173586 0.62577623
2.0677941 -0.28759745 0.62453204
2.0735414 -0.26986605 0.62771577
2.069078 -0.2491969 0.63128614
2.0812693 -0.25556445 0.62462676
2.0729146 -0.22936572 0.62701631
2.078192 -0.21486565 0.63363189
2.089124 -0.20913053 0.62990743
2.0950656 -0.19118693 0.63849354
2.1023369 -0.19171682 0.6301831
2.0748415 -0.17418593 0.63224232
2.0868306 -0.16508552 0.63579309
2.1029453 -0.17130747 0.62494683
2.1047649 -0.15105975 0.6253475
2.0998461 -0.12542096 0.63948625
2.1066594 -0.13085353 0.6310482
2.0978966 -0.10498358 0.63881439
2.1054397 -0.11139252 0.62849903
2.0749516 -0.083710119 0.6318199
2.0973897 -0.094769277 0.63338864
1.953087 -0.040905852 0.62922221
1.9702587 -0.050830279 0.6297543
1.9535129 -0.026708428 0.62937486
1.9498143 -0.0077470164 0.62822473
1.9526936 0.011172101 0.62922436
1.9577585 0.030180026 0.63587308
1.9638033 0.031839851 0.62464863
1.9726064 0.049498424 0.6258986
1.9747211 0.068685785 0.6267193
1.9566838 0.091866776 0.62617242
1.9657154 0.085124135 0.63143849
1.9734061 0.10696582 0.62666869
1.9791908 0.12172794 0.63365048
1.987309 0.128599 0.62964809
1.992494 0.1466618 0.62816763
1.9908948 0.16598636 0.63296312
1.987197 0.1899019 0.63219529
1.9796529 0.21815088 0.6253432
1.9847976 0.21233243 0.63350821
1.9945749 0.2344756 0.63532507
2.0047617 0.23051944 0.62332666
1.9994801 0.2594572 0.63235188
2.0055914 0.25028208 0.62649143
1.996655 0.27380008 0.63178766
2.0074739 0.27508223 0.62508124
2.0016339 0.28922957 0.63368905
2.0210025 0.29179639 0.62960047
2.0099061 0.31009641 0.63170105
2.0275421 0.33257148 0.62748921
2.0326133 0.34844303 0.62944412
2.0166721 0.37094766 0.63538295
2.0285766 0.36612061 0.62699348
2.0175228 0.38600862 0.6309849
2.0305917 0.38319108 0.62466246
2.0192206 0.40113848 0.62176615
2.026772 0.41283754 0.62949324
2.030895 0.42886218 0.6312294
2.0492949 0.44778442 0.62703711
2.0486746 0.47844499 0.62784189
2.0670149 0.46713257 0.6329211
2.0449448 0.49133775 0.6288873
2.0641227 0.51042485 0.62828553
2.0580509 0.5274297 0.63750815
2.0666387 0.53093195 0.62625855
2.050405 0.54625988 0.63590801
2.0713654 0.55129343 0.62661833
2.0694635 0.57011384 0.62851602
2.0717468 0.59184033 0.62998706
2.085892 0.60992229 0.63126987
2.0755699 0.62832409 0.63251191
2.0805769 0.62246227 0.62671077
2.0711012 0.64091599 0.62471324
2.096251 0.6538375 0.62714976
2.0902705 0.67893326 0.62646127
2.1009333 0.66784352 0.62726378
2.0945411 0.69114554 0.62816858
2.0987911 0.70341599 0.62988943
2.102869 0.71569347 0.63157022
2.0994172 0.73639953 0.63146758
2.1026633 0.72656572 0.6319679
2.0960667 0.74976963 0.62931639
2.1195574 0.77646959 0.63352323
2.1168525 0.79017657 0.62977403
2.1205816 0.79870397 0.62398994
2.1224709 0.8108272 0.63046378
2.1346507 0.83497244 0.62946928
2.1329486 0.85308301 0.63200653
2.1372395 0.86697865 0.62620354
2.141417 0.87412399 0.62219405
2.1352415 0.8946799 0.62692738
2.1421695 0.88610089 0.62841922
2.1317921 0.90841395 0.62481135
2.1287811 0.93388778 0.62520969
2.1410339 0.92608541 0.63546693
2.1422491 0.95527822 0.63170791
2.1395669 0.9659431 0.63698637
2.1429193 0.97486949 0.63100052
2.1456952 0.9920367 0.63994348
2.1614532 0.99875021 0.63346708
2.1527801 1.0182887 0.63209212
2.1675241 1.0090685 0.62817043
2.1331203 1.0268607 0.63273597
2.1495461 1.0280268 0.62063658
2.1701956 1.0259464 0.62598062
2.1530743 1.0539117 0.63393652
1.9948156 -0.98706001 0.64366311
1.994382 -0.97075093 0.64793026
1.9755665 -0.94786382 0.65315437
1.9800438 -0.94245088 0.64740741
1.9720811 -0.92793673 0.64430916
1.9725046 -0.91237915 0.64880693
1.9977509 -0.90759271 0.65110773
1.9739456 -0.89002389 0.64989334
1.9589015 -0.86935365 0.64770651
1.9627448 -0.86438894 0.6554327
1.9988126 -0.86511993 0.64947444
1.9712621 -0.85369951 0.65078604
1.9997212 -0.85535133 0.65962774
2.0047312 -0.85161954 0.65066099
1.9950156 -0.8281886 0.65010327
2.0013382 -0.82406962 0.65871733
1.9914013 -0.80890429 0.64472818
2.0037451 -0.80912542 0.65880054
1.9940858 -0.79259259 0.64826053
2.0044746 -0.78296292 0.65789014
1.9959673 -0.77914345 0.64483988
2.0082164 -0.76832771 0.65327024
2.0076427 -0.74874574 0.65055805
1.9966537 -0.73799497 0.6535781
2.0089998 -0.726596 0.65178549
2.0226073 -0.72558475 0.64042056
2.0117769 -0.71191251 0.65206289
2.0319865 -0.70830613 0.65294582
2.003129 -0.69866902 0.65400034
2.0275068 -0.69646049 0.6562894
2.0115597 -0.6700651 0.64781195
2.0104792 -0.65966672 0.65478283
2.0235989 -0.64815736 0.6532737
2.0111547 -0.62868476 0.64872229
2.0159631 -0.61166883 0.65063512
2.0221472 -0.60093391 0.64600557
2.0185642 -0.58997643 0.65480453
2.0235777 -0.58610028 0.65109646
2.0187492 -0.57444453 0.64920598
2.0214672 -0.56990147 0.64476162
1.9980518 -0.5538891 0.65736556
2.0111179 -0.55376613 0.65126306
2.0282516 -0.54633147 0.65124977
2.0309746 -0.52640593 0.64632457
2.0413139 -0.52430761 0.65980333
2.0329547 -0.50839478 0.65327817
2.0356483 -0.49197865 0.65192407
2.0411406 -0.48293528 0.64820266
2.0381281 -0.46884313 0.65376443
2.0415659 -0.46262914 0.64778376
2.036598 -0.45164612 0.65626413
2.0464232 -0.4468298 0.65232873
2.0626912 -0.45170981 0.64361602
2.0443349 -0.42762619 0.64774787
2.0392241 -0.40125552 0.64553803
2.0461683 -0.40958807 0.65477514
2.0472636 -0.38777333 0.65289414
2.0559473 -0.36886415 0.64483178
2.0561609 -0.35052085 0.65316135
2.0640857 -0.34985954 0.64176404
2.053447 -0.32647863 0.65185565
2.0697052 -0.33556059 0.64321065
2.0557387 -0.31008646 0.65573406
2.065552 -0.30468324 0.65178704
2.0574896 -0.28856152 0.65937924
2.0642977 -0.28921351 0.64596081
2.0572243 -0.27340889 0.65905857
2.0669653 -0.2684198 0.64957047
2.0696442 -0.24951333 0.64703614
2.0699301 -0.22935259 0.64687294
2.0721219 -0.21111523 0.64907944
2.0837777 -0.20546389 0.64565969
2.0768766 -0.18470909 0.65376681
2.0915618 -0.19272089 0.6514076
2.0877807 -0.16873722 0.65353268
2.1009746 -0.17655012 0.65067297
2.0976455 -0.15595481 0.6547538
2.1054485 -0.14960206 0.64483052
2.1066122 -0.13270761 0.648597
2.0865676 -0.10957652 0.65107155
2.0878651 -0.089404248 0.65141952
1.9523451 -0.040963009 0.64868528
1.9643312 -0.050753452 0.64766818
1.9522598 -0.026735183 0.64866871
1.9517905 -0.0077765151 0.64855897
1.9546099 0.011178201 0.6495502
1.9511089 0.030116323 0.64848685
1.9658514 0.049396057 0.6485067
1.9718314 0.068679787 0.64565355
1.951158 0.085440315 0.65058243
1.9738351 0.092747331 0.65152007
1.9693841 0.10688936 0.64525181
1.9597505 0.13035554 0.65726781
1.9668747 0.1211109 0.64460224
1.9902582 0.13218945 0.65236133
1.9891382 0.14664811 0.65218729
1.9774394 0.17481083 0.65380466
1.9887487 0.1643876 0.65063769
1.9752394 0.19862814 0.64351583
1.9846838 0.18991749 0.65141279
1.9746385 0.2130571 0.6435895
1.9851537 0.21431172 0.65702909
1.9825705 0.23331806 0.64653814
1.9978303 0.25468233 0.65189135
2.0009604 0.2499947 0.64269483
1.9946395 0.27378821 0.64625049
2.0035758 0.26014611 0.64373928
1.9888368 0.29099309 0.6464774
2.0038342 0.29959759 0.64472824
1.9901299 0.30759418 0.65065706
2.0017967 0.31582129 0.64786273
2.0125489 0.33067599 0.64826143
2.0100379 0.3503696 0.65817744
2.0226793 0.34721577 0.6467995
2.0177107 0.36136383 0.64562893
2.0220354 0.37227857 0.65239859
2.0277822 0.39004374 0.65130764
2.0286348 0.4104068 0.65218884
2.0440836 0.40639701 0.64484519
2.0287342 0.42895931 0.65109015
2.034142 0.44534975 0.65329933
2.047055 0.45465067 0.64553982
2.0480163 0.47373566 0.64819562
2.0396147 0.48735967 0.65125394
2.0404177 0.49238044 0.64133751
2.0566831 0.50679457 0.65198791
2.0613363 0.51328611 0.65887618
2.0593252 0.52824801 0.65357137
2.0619125 0.52352309 0.64896333
2.0592649 0.55416822 0.64928424
2.0763128 0.54817027 0.65423119
2.0668297 0.57177722 0.64699626
2.0668464 0.59286922 0.64781386
2.0771229 0.61190832 0.65693015
2.080004 0.6123752 0.64724773
2.0781159 0.6278069 0.64730155
2.0824592 0.62949055 0.65925419
2.0850911 0.64866018 0.65021586
2.0938978 0.67360759 0.64676982
2.1001747 0.66102988 0.64453292
2.0927408 0.68782204 0.65058202
2.0957432 0.70301545 0.64499229
2.1016243 0.71253604 0.65425181
2.0982177 0.72609973 0.65741247
2.1017632 0.73237258 0.64801407
2.1129084 0.7527808 0.65215558
2.1159773 0.77027857 0.64842427
2.1128163 0.79135799 0.6484642
2.1099195 0.80697733 0.64834428
2.1179643 0.83246243 0.65184546
2.1284001 0.82501644 0.64903069
2.1184416 0.84954214 0.65278733
2.1216252 0.85080516 0.65375876
2.1176479 0.86591321 0.64790207
2.1300004 0.87636107 0.64644444
2.1279767 0.88874263 0.64465106
2.1238527 0.90802097 0.64623922
2.1355567 0.93049598 0.65611762
2.1519876 0.93709105 0.65004385
2.1465957 0.95426482 0.6530568
2.1380813 0.9779461 0.65919834
2.1436596 0.96855879 0.6547817
2.1450858 0.98643482 0.6505487
2.1365025 1.0040814 0.65272063
2.1491427 1.0112237 0.64183724
2.1266408 1.0304192 0.64763945
2.1401479 1.0251542 0.65112537
1.9969888 -0.94594222 0.66823602
2.001096 -0.93187833 0.67402351
1.9910185 -0.91639405 0.67012894
1.9653119 -0.8886162 0.66076958
1.993223 -0.86376125 0.66831988
1.9938362 -0.84830427 0.67294914
2.0033739 -0.84622562 0.66033888
1.9666156 -0.82175976 0.67841274
1.9958596 -0.82789171 0.67265183
1.970122 -0.81274134 0.67912698
1.9958297 -0.80854195 0.67348474
2.0021806 -0.80370694 0.66839689
1.994867 -0.78704327 0.67222977
2.0016289 -0.78234625 0.66728634
2.0089064 -0.76958394 0.67418128
2.0045063 -0.74687386 0.67182976
1.9992527 -0.72898775 0.66427583
2.0031514 -0.72566307 0.67566371
1.9998223 -0.71356207 0.66382349
2.0065255 -0.71120423 0.67614573
1.9976534 -0.69720739 0.66247976
2.011786 -0.69204718 0.6744675
2.0228064 -0.68482357 0.66474712
2.0172062 -0.66231579 0.66729128
2.022882 -0.67484355 0.67474508
2.01635 -0.64502984 0.67324954
2.0201089 -0.6528694 0.66785157
2.0103321 -0.62589025 0.67062044
2.0127742 -0.60920364 0.66393375
2.0226893 -0.6074633 0.67734814
2.0176849 -0.59011304 0.6648193
2.0256062 -0.58583242 0.67408609
2.0131574 -0.568501 0.66777921
1.9939792 -0.54807562 0.66604882
2.0231099 -0.54056835 0.67004657
2.0323937 -0.52766448 0.67261577
2.0436652 -0.53521389 0.66087341
2.0326424 -0.5072608 0.67206812
2.0139043 -0.48754328 0.67059308
2.0327797 -0.48511577 0.66973358
2.0343101 -0.46849647 0.66975588
2.0304334 -0.44872704 0.67071903
2.0489137 -0.43020073 0.66994727
2.0683024 -0.42812547 0.67610699
2.0388639 -0.40174088 0.66605544
2.046886 -0.40361726 0.67904359
2.0677936 -0.4177441 0.67568928
2.0367231 -0.38644627 0.67533886
2.0433397 -0.3874321 0.66715622
2.0366173 -0.36776447 0.66800243
2.0521352 -0.36704686 0.66603166
2.0307605 -0.34990147 0.66231591
2.0426931 -0.34706253 0.67125273
2.0614233 -0.34481984 0.66162461
2.0639904 -0.33186245 0.66913652
2.0520377 -0.30824769 0.673531
2.0512927 -0.28798449 0.67294526
2.0556643 -0.27010414 0.67234921
2.0728025 -0.25024736 0.66888261
2.0692997 -0.22961739 0.66749489
2.072612 -0.21141659 0.66660017
2.0828831 -0.20582126 0.67680943
2.0743797 -0.1880358 0.66692328
2.0865479 -0.19602086 0.67788827
2.0752268 -0.16961083 0.66877675
2.0847211 -0.155202 0.67169189
2.1010828 -0.14612751 0.66630411
2.1020663 -0.13089356 0.66652673
2.0860119 -0.1097094 0.67187101
2.0914388 -0.089711592 0.67353296
2.0846682 -0.074241348 0.67133236
1.9685651 -0.041391741 0.66896516
1.9564567 -0.025276134 0.66819805
1.9618844 -0.031733915 0.67666852
1.9555871 -0.007839337 0.66959459
1.943338 0.011132648 0.66550034
1.9520346 0.028581485 0.66690993
1.967172 0.035150476 0.67873365
1.9590218 0.044530466 0.66606665
1.9680737 0.051119458 0.67582345
1.9721808 0.066396855 0.67067826
1.9821677 0.073892444 0.66408116
1.9558022 0.082556501 0.67026186
1.972383 0.092828408 0.67599428
1.9701848 0.10223155 0.66038746
1.9871718 0.10957547 0.67282534
1.9552511 0.13019507 0.67063773
1.967675 0.12131418 0.66476315
1.9743026 0.14419867 0.66896564
1.985744 0.15139773 0.66619986
1.9767095 0.16048539 0.67335749
1.9875096 0.16772784 0.67039031
1.9824435 0.18996386 0.67075986
1.985045 0.21285886 0.67038602
1.9918028 0.23306291 0.66966373
1.9924765 0.25190127 0.67028332
1.9994763 0.26979741 0.6628713
2.001581 0.27014104 0.66695231
1.9936355 0.29200861 0.66485614
2.0052736 0.28062436 0.6751824
1.995312 0.31352639 0.66257936
2.0107186 0.30617583 0.6776154
2.013921 0.32815769 0.67584157
2.016387 0.34660149 0.66521519
2.0274596 0.35361841 0.67412871
2.0293109 0.37064126 0.67179126
2.0226078 0.38784367 0.66841662
2.0181465 0.40208608 0.66741168
2.0222824 0.41299462 0.66908324
2.0336373 0.42879781 0.6715309
2.0337398 0.45260313 0.67235231
2.0405443 0.45710951 0.66086155
2.0332756 0.46616459 0.67438221
2.0486233 0.46918443 0.66380733
2.0525117 0.48570484 0.67081535
2.0568774 0.50748384 0.6729719
2.0520611 0.52706778 0.67216277
2.0704582 0.53648275 0.66253388
2.0574384 0.54409683 0.67450565
2.0681324 0.55349582 0.66596717
2.0653682 0.57209116 0.66757536
2.0653951 0.59149367 0.67009872
2.0769126 0.60158879 0.6670264
2.0819783 0.6138981 0.67438567
2.0774577 0.63042313 0.67543572
2.0811579 0.62414342 0.66924518
2.0777111 0.64469647 0.6743449
2.0848479 0.65724075 0.6664474
2.074775 0.67080122 0.67986411
2.0848839 0.67341435 0.66713822
2.0714738 0.68585873 0.67949891
2.0898676 0.69125652 0.66942894
2.0923674 0.70839858 0.67093641
2.093308 0.73074389 0.67758405
2.1069138 0.72952062 0.67090529
2.0951095 0.75332093 0.67917055
2.1130724 0.7479713 0.66817814
2.1070862 0.76796532 0.66729826
2.1081691 0.79055083 0.66867381
2.107691 0.80706787 0.66931337
2.116045 0.82681751 0.6672979
2.1208105 0.82915074 0.67970729
2.119451 0.84502691 0.66917187
2.1232545 0.8578425 0.67091089
2.1131454 0.8707037 0.66856205
2.1234357 0.87442434 0.66085547
2.1253581 0.8925401 0.66776198
2.1227493 0.90856171 0.66779357
2.1306052 0.92913234 0.67110562
2.130085 0.9461875 0.67181522
2.1470444 0.94706559 0.66019648
2.1370604 0.97220081 0.66965091
2.1421103 0.9917239 0.66657639
2.1431556 1.0153739 0.66253966
2.135931 1.0277904 0.66482306
1.9982542 -0.93112612 0.68349171
2.0015619 -0.92182219 0.68408275
1.9959844 -0.89447051 0.68790627
2.0002692 -0.88884175 0.68207526
2.0018222 -0.87368351 0.68704271
1.9865998 -0.84816474 0.69298214
1.9703356 -0.82385141 0.68993539
1.9810375 -0.83836228 0.68384957
1.9738461 -0.81481063 0.69066197
1.9877447 -0.80444956 0.68959713
1.9903454 -0.78610927 0.68788743
1.9940809 -0.76809371 0.69104797
1.9980184 -0.75091285 0.69571012
2.0037835 -0.74574476 0.69048882
2.0074353 -0.72794545 0.6926477
1.9939194 -0.70719403 0.68220425
2.0032742 -0.710998 0.69572842
2.0022471 -0.69453919 0.68439257
2.022876 -0.68598378 0.69076061
2.0181422 -0.67439115 0.69913769
2.0245898 -0.66824824 0.69061327
2.0317519 -0.65230346 0.69233334
2.0175669 -0.63238871 0.69212323
2.0127175 -0.61537379 0.68989104
2.0119512 -0.59633857 0.69067007
2.0232923 -0.59256548 0.68736416
2.0136564 -0.57151282 0.68966204
2.0129929 -0.5537014 0.68265212
2.0243313 -0.54513365 0.69299287
2.0282083 -0.52730942 0.69195586
2.0252132 -0.50610638 0.69030005
2.0186806 -0.48922116 0.6876272
2.0269675 -0.48105979 0.69012308
2.0344095 -0.4675332 0.69220442
2.0312443 -0.44474399 0.68878722
2.041122 -0.45392859 0.69924772
2.031925 -0.42635274 0.69024718
2.0453286 -0.40975484 0.69115764
2.0329487 -0.38441491 0.68783206
2.0439372 -0.39345717 0.69862437
2.0329168 -0.36598635 0.689134
2.0279577 -0.34991598 0.68197393
2.052423 -0.3474091 0.68999887
2.0590956 -0.33500883 0.69196111
2.0621519 -0.32857558 0.68587476
2.0468564 -0.30791074 0.69259369
2.0430923 -0.29216006 0.68587637
2.061888 -0.28475082 0.69197518
2.0689516 -0.26875576 0.69056958
2.0650775 -0.24967778 0.68726707
2.0490234 -0.22946505 0.69036078
2.063931 -0.22926292 0.68140441
2.070719 -0.21157789 0.6903972
2.0870428 -0.20639186 0.68868816
2.0561671 -0.19355296 0.69927967
2.0831358 -0.19083636 0.69251722
2.0701351 -0.1693669 0.68280888
2.080832 -0.17040306 0.69683409
2.0750797 -0.1513551 0.69127607
2.0902138 -0.14557216 0.6839143
2.0771332 -0.12964232 0.69531894
2.0924823 -0.13047582 0.68455982
2.0794413 -0.10956638 0.6959877
2.0871577 -0.10990434 0.68800861
2.0859942 -0.089613885 0.69282347
2.0685036 -0.063739955 0.69223362
2.0850842 -0.071002334 0.69073343
1.9527621 -0.022106722 0.68845487
1.9626204 -0.031778358 0.68689471
1.9532334 -0.0078513687 0.68866026
1.9501147 0.011164997 0.68267059
1.9652511 0.011231404 0.69794214
1.9693733 0.030421961 0.69448578
1.9561926 0.050894082 0.69166464
1.9639145 0.044681456 0.68766445
1.9511213 0.066634975 0.69002247
1.9700599 0.073580436 0.68501759
1.9459212 0.082266524 0.68667841
1.9618316 0.09247537 0.69236612
1.9498736 0.10148747 0.69325387
1.9762198 0.10592928 0.68917656
1.9824449 0.11264162 0.68468773
1.9751965 0.12188184 0.68232256
1.9836545 0.12731139 0.69538081
1.9712768 0.14571989 0.6813125
1.9812961 0.14652973 0.69483447
1.9698355 0.17460972 0.6913051
1.9839549 0.16444482 0.68929952
1.977193 0.1945765 0.68917871
1.985974 0.18075971 0.68690288
1.9837381 0.21467054 0.69181442
1.9903637 0.23390177 0.69144189
1.9921838 0.25622758 0.68715924
2.0019202 0.27057999 0.68909526
1.9991794 0.29004472 0.69373506
2.00266 0.28710756 0.68804502
2.0121059 0.30832532 0.69177246
2.0077472 0.32603067 0.69759691
2.0234528 0.32831582 0.69269979
1.9931134 0.358336 0.69353372
2.0026653 0.34667253 0.69303817
2.0220401 0.34631228 0.68586111
2.0171649 0.36895761 0.6883176
2.0208018 0.36274678 0.68249148
