# .PCD v0.7 - Point Cloud Data file format
VERSION 0.7
FIELDS x y z
SIZE 4 4 4
TYPE F F F
COUNT 1 1 1
WIDTH 1502
HEIGHT 1
VIEWPOINT 0 0 0 1 0 0 0
POINTS 1502
DATA ascii
-2.2197368 2.2158661 0.38510716
-2.2300746 2.2285182 0.49933887
-2.249929 2.2507141 0.61860281
-2.2147 2.21702 -0.16423026
-2.2358656 2.2397709 0.73064101
-2.2021136 2.2067301 -0.054416601
-2.2576129 2.2639267 0.85669106
-2.2539122 2.2736671 0.055882607
-2.2457607 2.267818 0.16726573
-2.2517111 2.2762091 0.28011855
-2.2628067 2.2906213 0.3953442
-2.2685757 2.2988675 0.51154077
-2.2837791 2.316699 0.63234103
-2.2594388 2.2936094 -0.16873114
-2.27896 2.3150418 0.74998683
-2.2469661 2.2833381 -0.055917513
-2.2891622 2.3278418 0.87480837
-2.2869093 2.339395 0.057104275
-2.2926674 2.347743 0.17197597
-2.2955897 2.3531992 0.28761396
-2.3049366 2.3660843 0.40558121
-2.3158433 2.3797715 0.52593273
-2.3209198 2.3874879 0.64722413
-2.2948627 2.3623328 -0.17260399
-2.3238249 2.3938165 0.77023244
-2.2894607 2.359242 -0.057383511
-2.3306856 2.4034002 0.89706683
-2.3301997 2.4172091 0.058605183
-2.3385644 2.4284308 0.17668621
-2.3454068 2.4380894 0.2959809
-2.3474972 2.4436748 0.416062
-2.3661926 2.4657187 0.54126334
-2.3694088 2.4716594 0.66554183
-2.3404891 2.443198 -0.17731424
-2.3730869 2.4789593 0.79227757
-2.3365326 2.4416258 -0.058989134
-2.3779376 2.4866312 0.9219135
-2.375267 2.4986379 0.060175899
-2.3793175 2.5055256 0.18108243
-2.3914046 2.5208957 0.30399922
-2.3863533 2.5190895 0.42605525
-2.4086623 2.5453084 0.55502951
-2.4114377 2.550915 0.68233299
-2.3782365 2.5175531 -0.18150112
-2.4110155 2.5531447 0.8107236
-2.3825624 2.5247791 -0.060594756
-2.4320912 2.5790672 0.94986594
-2.4252298 2.5862229 0.061886236
-2.4209223 2.5843396 0.18558332
-2.4445248 2.6131892 0.31306344
-2.4396286 2.6106951 0.43872967
-2.4532871 2.6280682 0.56942153
-2.4738913 2.6538517 0.70523006
-2.4209566 2.5979743 -0.18610668
-2.4608626 2.642648 0.83366859
-2.423455 2.6042991 -0.062095661
-2.4907956 2.6776018 0.97988898
-2.4749985 2.6764996 0.063631475
-2.4827797 2.687737 0.19175896
-2.4915361 2.7000513 0.32143039
-2.5007098 2.7137916 0.45311025
-2.5071244 2.7236128 0.58631647
-2.5235431 2.7443314 0.72469258
-2.4676261 2.6854041 -0.19113094
-2.5232348 2.746881 0.86111259
-2.478694 2.700285 -0.06398052
-2.5321124 2.7604125 1.0037004
-2.5267997 2.7701089 0.065446526
-2.5370693 2.7842939 0.19741124
-2.5423524 2.7940087 0.33049458
-2.5529466 2.808604 0.46602839
-2.5682027 2.8283617 0.60508859
-2.5728981 2.8375103 0.74453676
-2.5378184 2.7998061 -0.19803928
-2.5785663 2.8467565 0.88675708
-2.5335898 2.7990637 -0.065900289
-2.5910342 2.8635333 1.0347586
-2.5742621 2.8620205 0.067191765
-2.6030006 2.8970206 0.20411025
-2.6071184 2.9046609 0.3414762
-2.6087987 2.9106166 0.47992152
-2.6235027 2.9301069 0.62292212
-2.6346707 2.9456849 0.768197
-2.5847602 2.8919117 -0.20327288
-2.6430089 2.9591606 0.91600066
-2.5957196 2.9072356 -0.068029478
-2.6468625 2.9665999 1.0652993
-2.6510808 2.9891346 0.069739819
-2.6397789 2.9952946 -0.20923917
-2.6962693 3.0647802 1.0937693
-2.6862004 3.096663 1.0984281
-2.6086285 3.0435379 -0.21007656
-2.6440394 3.1287973 -0.21468212
-2.6246889 3.150249 -0.21489146
-1.8404036 3.4323354 1.0435584
-1.8190894 3.4414678 -0.20400558
-1.8215041 3.4533267 1.0461466
-1.798703 3.4611723 -0.20442426
-1.800019 3.4711041 1.0476996
-1.7881292 3.4868042 0.4811402
-3.6604784 7.1470475 1.2718123
-3.6580806 7.1546717 1.5619626
-1.7814641 3.4857848 -0.20515697
-3.593641 7.0377254 1.8243531
-1.7693866 3.4681251 -0.067959674
-3.5965824 7.0526009 2.1212809
-3.6370888 7.1846199 0.14056168
-3.6081698 7.1367726 0.41910636
-3.6145027 7.1586046 0.70160371
-3.6177289 7.177443 0.98689806
-3.6087172 7.1689 1.2711866
-3.6242862 7.2092242 1.56845
-1.9829966 3.9478974 -0.2315343
-3.545295 7.0643845 1.824803
-3.5437963 7.0706301 2.1192105
-3.5708094 7.1776094 0.13993341
-3.5680332 7.1814637 0.42025778
-3.5706375 7.1961579 0.70282388
-3.5789864 7.2256489 0.99006665
-3.5577052 7.1921487 1.2708738
-3.5634329 7.2132282 1.5638705
-1.9783704 4.0082107 -0.23425576
-3.4993377 7.0959549 1.8266027
-3.5453601 7.1924429 -0.13996831
-3.4909332 7.0882654 2.1171398
-3.5258822 7.2131429 0.14014283
-3.5204422 7.2115817 0.42057177
-3.5211883 7.2226996 0.70299816
-3.5084791 7.2094035 0.98446059
-3.5099978 7.2221403 1.2718123
-3.5052733 7.2220349 1.560436
-1.9433696 4.0075464 -0.23341838
-3.4522619 7.1254725 1.8279523
-3.4880886 7.2026215 -0.13968907
-3.44557 7.1211596 2.1197281
-3.4745736 7.2357798 0.14010793
-3.4682832 7.2323813 0.42036244
-3.4732604 7.2524972 0.70352113
-3.4597752 7.2373042 0.98494816
-3.4611983 7.2500334 1.2724382
-3.4581482 7.2534194 1.5619626
-1.9187781 4.0282297 -0.23383708
-3.3965743 7.1370811 1.824803
-3.4454508 7.2430491 -0.1400032
-3.4015753 7.1572537 2.1233516
-3.4282379 7.2689028 0.14028244
-3.4177072 7.2564182 0.42036244
-3.4242396 7.2801743 0.70386976
-3.414227 7.2720628 0.98641062
-3.4079831 7.2686539 1.2714995
-3.4057639 7.2738261 1.5611992
-1.8956887 4.0523806 -0.23446509
-3.3483121 7.1641517 1.8257027
-3.3863404 7.2488074 -0.13965416
-3.3482575 7.1738243 2.1212809
-3.3816102 7.3017325 0.14045697
-3.3703175 7.2873521 0.42078111
-3.3699899 7.2966681 0.70317256
-3.3650374 7.2993269 0.98689806
-3.3563294 7.2904749 1.2711866
-3.36064 7.3099122 1.5638705
-1.8506768 4.0292182 -0.23237166
-3.2998445 7.1908941 1.8266027
-3.3398166 7.2813611 -0.13982868
-3.2980964 7.1970234 2.1212809
-3.3264134 7.3160601 0.14028244
-3.3226633 7.3179789 0.42119983
-3.3189673 7.3200169 0.70317256
-3.3164515 7.3280663 0.98762923
-3.3086047 7.32093 1.2724382
-3.3054881 7.3242493 1.5619626
-1.82743 4.0529633 -0.2329997
-3.2527635 7.2208629 1.8284022
-3.2864425 7.2990294 -0.13972397
-3.2477715 7.219873 2.1212809
-3.2785165 7.3464098 0.14042206
-3.273119 7.344645 0.42140913
-3.2702129 7.3484697 0.70369548
-3.2619879 7.3437843 0.98665434
-3.2606177 7.3510714 1.2736895
-3.2574546 7.3543272 1.563489
-1.8055563 4.0802341 -0.23383708
-3.207001 7.2540898 1.8311015
-3.2402549 7.3327694 -0.13993341
-3.1996288 7.2476726 2.122834
-3.2271526 7.3691177 0.14042206
-3.2201672 7.3636556 0.42119983
-3.224416 7.3839006 0.70491564
-3.2130182 7.3718371 0.98738551
-3.2107952 7.3772798 1.2743154
-3.2060325 7.3768892 1.563489
-1.7642996 4.0634274 -0.23216233
-3.1544461 7.2686 1.8293018
-3.192961 7.3643851 -0.14010793
-3.152792 7.278698 2.1254222
-3.1800768 7.398262 0.14056168
-3.1691816 7.3835683 0.42109516
-3.1727846 7.4062328 0.70491564
-3.1666694 7.4026628 0.98860419
-3.1581769 7.3935132 1.2733767
-3.1567638 7.40451 1.564634
-3.155319 7.4047031 -0.42182785
-3.1028616 7.2886524 1.8288521
-3.137557 7.377296 -0.13993341
-3.1061971 7.3071008 2.1274927
-3.1314569 7.4276538 0.14070129
-3.1253033 7.423923 0.42214185
-3.1222982 7.4276576 0.70491564
-3.1156831 7.4264183 0.98884791
-3.108777 7.4208465 1.2743154
-3.1108391 7.4366918 1.5669236
-3.1035476 7.4265504 -0.42182785
-3.0571568 7.3227248 1.8320013
-3.0888083 7.4021721 -0.1400032
-3.0521352 7.321476 2.1254222
-3.0627189 7.4086785 0.13993341
-3.0558746 7.4030981 0.41973442
-3.0445569 7.3866429 0.69898903
-3.0388365 7.3874083 0.98080456
-3.0373769 7.3948617 1.2661808
-3.0305331 7.3892055 1.5524222
-3.034966 7.4073782 -0.41952509
-3.0089166 7.3511019 1.833801
-3.0105548 7.358777 -0.13878153
-3.002409 7.3461819 2.1264575
-2.9928966 7.3853998 0.13909568
-2.9928794 7.3964801 0.41816431
-2.9772406 7.3689246 0.69532847
-2.9701185 7.3660979 0.97519863
-2.9731386 7.3847332 1.260862
-2.96716 7.3810353 1.5463161
-2.978713 7.4172654 -0.41889706
-2.9625986 7.3845911 1.8369503
-2.948688 7.3536315 -0.13829286
-2.9567966 7.3813095 2.1305985
-2.9375737 7.396822 0.13892116
-2.9286532 7.3856311 0.41638491
-2.9345248 7.4117603 0.6974203
-2.9244571 7.4014235 0.97714853
-2.9251356 7.4144979 1.2624264
-2.918433 7.4088788 1.5478426
-2.9224734 7.4267268 -0.41826901
-2.9074109 7.3960242 1.8347007
-2.9024007 7.3870649 -0.1385372
-2.912255 7.419754 2.1357749
-2.8873124 7.4208765 0.13899097
-2.8791904 7.4114823 0.41669893
-2.8812683 7.4283504 0.69707161
-2.8719974 7.4198084 0.97690481
-2.8704529 7.4273672 1.2611748
-2.8722956 7.4437242 1.5508956
-2.8734272 7.4544024 -0.41868767
-2.8571069 7.4197788 1.8356007
-2.8500402 7.4052811 -0.1385023
-2.8645403 7.4507246 2.1388805
-2.8411312 7.455802 0.1392702
-2.8302193 7.438869 0.4171176
-2.8321683 7.4557352 0.69776887
-2.8229415 7.4471021 0.97787964
-2.8206279 7.4527693 1.2621135
-2.8230348 7.4709415 1.5524222
-2.8255475 7.4854922 -0.4193157
-2.8134878 7.4614253 1.8409994
-2.7989776 7.4268694 -0.1385372
-2.812458 7.4705396 2.1388805
-2.7890105 7.4754553 0.1392702
-2.7824001 7.4696765 0.41774565
-2.7800484 7.4753261 0.69776887
-2.7764075 7.4815168 0.97982955
-2.7753918 7.4908018 1.2652421
-2.7687652 7.4849434 1.5512772
-2.774605 7.5087838 -0.41952509
-2.7653348 7.4877157 1.8427991
-2.753289 7.4631133 -0.13885134
-2.7609038 7.4918056 2.1393983
-2.7380655 7.4942651 0.1392702
-2.7383389 7.5072045 0.4187924
-2.7318819 7.5057855 0.69881475
-2.7254179 7.5002422 0.97982955
-2.7256866 7.5132341 1.2658678
-2.7204525 7.5151672 1.5535669
-2.7207117 7.5199828 -0.41910636
-2.7176299 7.5196681 1.8459483
-2.7038355 7.4896765 -0.13899097
-2.7150898 7.5249624 2.1435394
-2.6910603 7.5282626 0.13954943
-2.6845157 7.5223775 0.41858301
-2.6874146 7.5429745 0.70055783
-2.6756499 7.5265684 0.98080456
-2.6791141 7.5488343 1.2686837
-2.6718581 7.5409126 1.5550934
-1.4766762 4.1723194 -0.23195298
-2.6663821 7.537992 1.8459483
-2.6601202 7.5286479 -0.13937493
-2.6644182 7.5491986 2.1450922
-2.6437197 7.5577297 0.13975887
-2.6358879 7.548018 0.41900173
-2.6346929 7.5615511 0.70055783
-2.6282725 7.5558548 0.98226702
-2.6276722 7.5668941 1.2686837
-2.6268601 7.5816426 1.5596728
-2.6285329 7.5907521 -0.4209905
-2.6168768 7.5656314 1.8481979
-2.6061933 7.5432539 -0.13930511
-2.6180151 7.581769 2.1492336
-2.5967159 7.5930309 0.14007302
-2.5876455 7.5794673 0.41973442
-2.5857329 7.5868535 0.70125508
-2.5818458 7.592814 0.98470432
-2.5773175 7.5925374 1.2699351
-2.5770831 7.6049261 1.5608176
-2.5729177 7.6013498 -0.42057177
-2.5683677 7.5966377 1.8513472
-2.555424 7.5627146 -0.13934001
-2.5650241 7.5998597 2.1492336
-2.5423758 7.607182 0.1400032
-2.5397246 7.6125045 0.42057177
-2.5364814 7.6160631 0.70230097
-2.5344124 7.6276078 0.98689806
-2.5279839 7.621594 1.2718123
-2.5245483 7.6245937 1.5611992
-2.5335841 7.6608438 -0.42287454
-2.5201569 7.6291871 1.8549464
-2.505702 7.5898643 -0.13951454
-2.5155308 7.6285911 2.1523392
-2.4923086 7.6342502 0.14017773
-2.4927058 7.6490393 0.42161852
-2.4881802 7.6487422 0.70369548
-2.4798744 7.6413398 0.98641062
-2.4771488 7.6465745 1.2730639
-2.4754856 7.6551085 1.5638705
-2.484951 7.6935506 -0.42371196
-2.4704275 7.6577225 1.8576458
-2.4587901 7.6262035 -0.13986358
-2.4645844 7.6533213 2.1544099
-2.4425948 7.6628952 0.14038716
-2.4368224 7.6586423 0.42119983
-2.4377365 7.6754217 0.70456702
-2.4300642 7.6698194 0.9878729
-2.4284704 7.6787486 1.2755668
-2.4267111 7.6871829 1.5669236
-2.4383864 7.7335687 -0.42496803
-2.4180768 7.6784992 1.8585455
-2.409091 7.6546283 -0.14007302
-2.4139905 7.6795554 2.1569982
-2.3955719 7.7007647 0.14077111
-2.3880339 7.6907268 0.42203718
-2.3899906 7.7112832 0.70631009
-2.3805645 7.6998744 0.9895792
-2.3736384 7.6917405 1.2749411
-2.3764524 7.7151937 1.5692132
-1.2849576 4.1768184 -0.22902218
-2.3680456 7.7022319 1.8603452
-2.353832 7.6655259 -0.13996831
-2.3648498 7.7109971 2.161139
-2.3471658 7.7302866 0.14101544
-2.3379462 7.7144494 0.42245588
-2.3372509 7.7315955 0.70665878
-2.3321116 7.7292027 0.99128538
-2.3257844 7.7228503 1.277444
-2.3281808 7.7504001 1.5730294
-1.2496059 4.1625128 -0.22776611
-2.3175743 7.7297769 1.8630446
-2.3048482 7.6970978 -0.14024754
-2.3134153 7.7306161 2.1621742
-2.2942801 7.750319 0.14108525
-2.2896948 7.7497354 0.42350259
-2.2873905 7.7568789 0.70753026
-2.2820158 7.7586269 0.99299151
-2.2751505 7.7502728 1.2793212
-2.2748196 7.764183 1.5726478
-1.2294899 4.2018056 -0.22944085
-2.2679267 7.7607317 1.8666438
-2.2568867 7.727963 -0.14052677
-2.2615528 7.7539973 2.1642449
-2.2428877 7.7757535 0.14125979
-2.2388511 7.7770476 0.42413062
-2.2386796 7.7918091 0.70927346
-2.2283454 7.7762756 0.99323523
-2.2264194 7.7849584 1.2824498
-2.223793 7.7912025 1.5749376
-1.1979359 4.2026038 -0.22902218
-2.2190268 7.7951188 1.871143
-2.2072582 7.7589192 -0.14080602
-2.2131722 7.7900391 2.169939
-2.1923337 7.8046989 0.14150412
-2.185581 7.7963352 0.42433998
-2.1869159 7.8168411 0.710145
-2.1766698 7.8012037 0.99445397
-2.1783786 7.8231478 1.2862043
-2.1730254 7.8197784 1.5776089
-1.1600238 4.1800714 -0.22734742
-2.1655934 7.8141766 1.8720427
-2.1589112 7.7953367 -0.14118996
-2.162853 7.8201947 2.1740801
-2.1441207 7.8429599 0.14192297
-2.1353042 7.8268175 0.42517737
-2.1359546 7.845376 0.71136516
-2.1273553 7.8353672 0.99689132
-2.1211267 7.8286324 1.2846401
-2.1188962 7.8366532 1.5779905
-1.134976 4.2034941 -0.22818479
-2.1054106 7.8084064 1.8670937
-2.1044333 7.8102193 -0.14118996
-2.0941541 7.7828693 2.1595864
-2.0810931 7.8268185 0.1413645
-2.0585856 7.7585244 0.42067644
-2.0556335 7.7637949 0.70264959
-2.0356097 7.7099171 0.97909838
-2.0191133 7.663691 1.2552303
-2.0122192 7.6537867 1.5383022
-1.1025615 4.1997237 -0.22755675
-1.9950037 7.6099052 1.8162549
-1.9869653 7.5954514 2.1036813
-1.9673599 7.6126971 0.13724573
-1.9495111 7.5599685 0.40916255
-1.9437883 7.5541306 0.68242943
-1.9299343 7.5220447 0.95350581
-1.9126501 7.4709253 1.2214404
-1.9067433 7.4641161 1.4974691
-1.073215 4.2073188 -0.22755675
-1.8893983 7.4178071 1.7672155
-1.9059057 7.4880786 -0.1348722
-1.8801185 7.3975649 2.0451882
-1.8596454 7.409018 0.13333638
-1.8510789 7.3912754 0.3993234
-1.8427017 7.3742218 0.66499835
-1.8269875 7.3330822 0.92791325
-1.8146979 7.3000607 1.1914051
-1.8068521 7.2847886 1.4589256
-1.0409355 4.2030768 -0.22692874
-1.7915771 7.2394376 1.7217753
-1.8036932 7.2993064 -0.1312421
-1.7816876 7.2210746 1.9929067
-1.7637045 7.2349954 0.12998553
-1.7516358 7.2018728 0.38843751
-1.7484496 7.2107043 0.64913595
-1.7298822 7.1504765 0.90329564
-1.7223248 7.1355824 1.162621
-1.7242582 7.1655197 1.4325941
-1.0085684 4.1945291 -0.22609136
-1.7135346 7.1483736 -0.12831008
-1.6879439 7.0470419 1.9416605
-1.6848103 7.1439447 0.3846693
-1.6740308 7.1372538 0.90012699
-1.6621188 7.1031933 1.1554251
-1.6651822 7.1331172 1.4238168
-0.97835165 4.197578 -0.22588199
-1.6492503 7.0872297 1.6799345
-1.6020081 6.9005833 1.8981789
-1.6366189 7.1458611 0.12796104
-1.6219906 7.0990682 0.38163382
-1.6284964 7.1447678 0.64111763
-1.6272413 7.1623173 0.90183324
-1.6116155 7.1107712 1.1547993
-1.6149102 7.1426539 1.4234352
-0.94990283 4.2082024 -0.22609136
-1.605733 7.125185 1.686233
-1.6007544 7.1088929 -0.12719314
-1.5165062 6.7457356 1.8526268
-1.5793371 7.1239228 0.12736766
-1.5702373 7.1004677 0.38111049
-1.5657045 7.0975943 0.63588828
-1.5537509 7.0668707 0.88842762
-1.5352128 7.0175838 1.3963403
-0.9187963 4.2069263 -0.22567266
-1.5248151 6.9934206 1.6524904
-1.529803 7.0222011 -0.1254479
-1.437355 6.6089153 1.812251
-1.4939345 6.9685774 0.12440075
-1.4826232 6.9335241 0.37158534
-1.4787115 6.9329815 0.62020022
-1.4655842 6.8950233 0.86551613
-1.4572736 6.8736353 1.1128749
-1.4520649 6.8667855 1.3642844
-0.88858092 4.2093291 -0.22546332
-1.4405897 6.8360925 1.6128991
-1.4444888 6.8605127 -0.12237628
-1.3693228 6.5148096 1.7837809
-1.4107797 6.8123946 0.12143384
-1.4018624 6.7872281 0.36321157
-1.4009291 6.8006821 0.60747552
-1.3850803 6.7475796 0.84577334
-1.3621075 6.653348 1.0756435
-1.3361472 6.5439773 1.2982645
-0.85837495 4.2115169 -0.22525398
-1.292981 6.3552113 1.4972742
-1.366683 6.7234578 -0.11975842
-1.2876967 6.3462439 1.735123
-1.2687572 6.349493 0.11302178
-1.2572552 6.3091211 0.33714828
-1.2578849 6.3295693 0.56459486
-1.2473298 6.2994719 0.78849471
-1.2333508 6.2460341 1.0083766
-1.2327733 6.260354 1.2402586
-0.82740921 4.2095675 -0.22483528
-1.2196963 6.2168365 1.4626317
-1.228163 6.2657952 -0.11145107
-1.2192526 6.2318439 1.7014765
-1.2043544 6.2541251 0.11117183
-1.1917068 6.2059436 0.33118194
-1.1881827 6.2051325 0.55274171
-1.1780299 6.1754308 0.77192044
-1.1679393 6.1399975 0.9899174
-1.1685497 6.1607914 1.2188879
-0.79800278 4.215241 -0.22483528
-1.1548951 6.1062779 1.4347378
-1.1595399 6.1425619 -0.10911245
-1.1496053 6.1016173 1.6636889
-1.1347667 6.1166821 0.10858887
-1.1261891 6.0882187 0.32448295
-1.1228108 6.0937529 0.54210871
-1.1140848 6.0642095 0.75705242
-1.1040488 6.0273371 0.97051954
-1.0980248 6.0181522 1.1891217
-0.76929194 4.2205753 -0.22483528
-1.0895697 5.9895687 1.4054942
-1.0937673 6.0245852 -0.10687853
-1.0846028 5.9800444 1.6284895
-1.0692199 5.9964933 0.10632006
-1.0640823 5.9858127 0.31862134
-1.0580137 5.9698119 0.53042984
-1.0492933 5.9447722 0.74120939
-1.0431144 5.927896 0.95331174
-1.0366814 5.9094634 1.1662247
-0.73774159 4.2140388 -0.22420727
-1.0282761 5.8856888 1.3793999
-1.0324494 5.9156661 -0.10481916
-1.0236021 5.8770847 1.5984664
-1.0094521 5.8993464 0.1044701
-1.0007715 5.8670917 0.31192234
-0.99793887 5.8690224 0.52084273
-0.98755324 5.8325615 0.72634137
-0.98198217 5.8181639 0.93453962
-0.9765113 5.8042655 1.1440908
-0.70962673 4.2269654 -0.22462595
-0.96880871 5.7831721 1.3537554
-0.97528285 5.8280606 -0.10314372
-0.9650473 5.7792869 1.5699965
-0.95044976 5.7977157 0.10255034
-0.94175076 5.7635522 0.3060607
-0.94156843 5.781455 0.51247573
-0.92869735 5.727622 0.71244824
-0.92274356 5.7098236 0.91608036
-0.92066574 5.7159662 1.1253915
-0.67946583 4.2278728 -0.2244166
-0.91181523 5.6799593 1.3281111
-0.91464674 5.7103324 -0.10094472
-0.91431373 5.7210226 1.5523967
-0.89918429 5.7289815 0.10122395
-0.87902945 5.6847367 0.91107446
-0.88014096 5.7183738 1.1246282
-0.65067387 4.2323995 -0.2244166
-0.87273031 5.6900387 1.3290108
-0.86931688 5.6809974 -0.10031643
-0.87009424 5.69274 1.5430793
-0.8514663 5.6837001 0.10031643
-0.84686697 5.6732693 0.30061778
-0.84329915 5.669733 0.50149411
-0.62284642 4.2486959 -0.22504464
-0.39186418 2.6763153 0.62446409
-0.38717303 2.6572154 0.71951699
-0.38092643 2.6665187 0.047016785
-0.37963068 2.6674232 0.14120242
-0.37083659 2.6520779 0.52052695
-0.36671668 2.6326635 0.61366647
-0.36930957 2.6580582 -0.046842258
-0.36615494 2.6387408 0.71382296
-0.34096882 2.5934088 0.70088202
-0.31808621 2.5573845 0.69052929
2.1134861 -0.24827754 -0.2612879
2.0625675 -0.30052844 -0.25592566
2.0564947 -0.31432056 -0.25543818
2.0699892 -0.33081749 -0.25738806
2.9051485 -1.2625916 -0.16600966
2.9205205 -1.2723035 0.85358524
2.4234104 -1.0718842 -0.23183426
2.9273076 -1.296593 -0.16778909
2.9362862 -1.3036362 0.86083221
2.9514258 -1.3208548 0.056441084
2.9690099 -1.3305905 0.17051056
2.9883413 -1.3411337 0.28656808
2.9674106 -1.3342296 0.39948773
2.3904381 -1.0773158 -0.22939391
2.9454913 -1.3293214 -0.16935916
3.753818 -1.6964916 -0.071903922
3.7718251 -1.7197149 0.072357684
3.7645128 -1.7187622 0.21688022
3.7562482 -1.7173662 0.36134771
2.3756161 -1.0906526 -0.22869666
3.7400386 -1.7194349 -0.21572883
3.7310395 -1.7406051 0.50551409
3.721874 -1.7394941 -0.35943025
3.7362034 -1.7477806 0.80177945
3.7351789 -1.7488908 -0.21614751
3.7164972 -1.7409345 0.94749385
3.7407947 -1.755502 1.1072279
3.7312284 -1.7757094 -0.36152202
3.6869209 -1.7609413 1.0948045
3.7047095 -1.7941184 -0.36012751
3.6693256 -1.7841035 1.0932516
3.6706493 -1.8093675 -0.3580358
3.6362393 -1.8248636 -0.35594404
3.609215 -1.8429561 -0.35454956
3.5891888 -1.8644342 -0.35385233
2.3182898 -1.2248821 -0.22939391
3.5487666 -1.9068211 -0.35245782
2.3079555 -1.2609521 -0.23009115
2.3132544 -1.2843698 -0.23148565
2.2868803 -1.290695 -0.22974254
3.3631701 -2.0617607 1.057017
3.358779 -2.0874035 -0.20725042
3.3650937 -2.095401 1.0621934
3.3994207 -2.135761 0.35123762
3.3972449 -2.1377034 0.49283966
3.4029026 -2.1437516 0.63700122
3.4041517 -2.1470289 0.78231698
3.3981707 -2.1449153 -0.21059991
3.3972671 -2.1460035 0.92769814
3.3893578 -2.141835 -0.069984153
3.4009984 -2.1508527 1.0782403
3.4767034 -2.2131982 0.07193882
3.9479616 -2.5160975 0.24535099
3.9168656 -2.4991646 0.40649435
3.9860892 -2.5472503 0.58082932
3.5041792 -2.2461901 -0.2181363
3.9902837 -2.5607331 -0.082759313
4.0355096 -2.6086907 0.083876267
4.022521 -2.6032815 0.25110796
4.0314183 -2.6120355 0.42026496
4.0348182 -2.6182394 0.59057891
5.0574722 -3.2893832 1.1727122
3.5151954 -2.2880316 -0.21981104
4.8387361 -3.1507235 1.3330599
4.0259213 -2.6234636 -0.083876267
5.0567632 -3.2977204 1.6176192
4.0611296 -2.6646206 0.084783792
4.0714812 -2.674463 0.25529483
4.0663486 -2.6751573 0.42584294
4.0616641 -2.6751237 0.5971598
4.9309263 -3.2513466 0.93547827
4.9590249 -3.2748439 1.1551577
3.4995399 -2.3119056 -0.21981104
4.8783951 -3.2252669 1.3501562
4.0792198 -2.6989529 -0.085377172
4.9053235 -3.2467628 1.576208
4.1023407 -2.7328188 0.086040363
4.0892668 -2.7272019 0.25759763
4.109354 -2.7437079 0.43229246
4.0824933 -2.7298963 0.60300958
4.8605037 -3.2538238 0.92640501
4.8583374 -3.2560587 1.13684
3.484973 -2.3373926 -0.2199157
6.1347351 -4.1161571 1.7055789
4.1005974 -2.7534101 -0.086214885
6.4827919 -4.3562551 2.0928109
4.1366572 -2.7965176 0.087157324
4.123538 -2.7907956 0.26094711
4.1412258 -2.8069842 0.43769613
4.1377344 -2.8077805 0.61397779
4.8104658 -3.2679617 0.92108625
4.8273721 -3.2843747 1.134932
3.4706333 -2.3621836 -0.22002037
4.7030025 -3.2033615 1.3137141
4.1291933 -2.8146329 -0.087227128
4.8217859 -3.2879667 1.5637847
4.1681457 -2.8604045 0.088239364
4.1747403 -2.8681464 0.26544797
4.1729121 -2.8701084 0.44309977
4.1736145 -2.8748856 0.62226492
4.7826548 -3.2981009 0.92014766
4.7822852 -3.3015418 1.1295893
3.4622736 -2.3920319 -0.22054374
4.746244 -3.2815554 1.3321601
4.1740799 -2.8870378 -0.088588417
4.7701225 -3.3017578 1.5544673
4.2104273 -2.9328673 0.089565754
4.2070389 -2.9337797 0.26879749
4.2083187 -2.937948 0.44902641
4.2185183 -2.9494512 0.63201445
3.4536662 -2.4218783 -0.22106709
4.2160163 -2.9597692 -0.089914799
4.25353 -3.0072107 0.090927035
4.2516651 -3.0092328 0.27298436
4.259234 -3.0179386 0.45669609
4.2399158 -3.0086987 0.63835168
3.4399288 -2.4482462 -0.22127645
5.9348741 -4.2270565 1.682184
5.5534949 -3.9568839 -0.11902541
6.0303411 -4.3364325 0.6498332
5.9219565 -4.2741923 1.4196191
3.4195149 -2.4698629 -0.22106709
5.8562598 -4.2329974 1.668237
5.8831277 -4.2571101 1.9458016
5.4937553 -3.9987764 0.11860656
5.4801273 -3.993248 0.35536119
5.4737735 -4.0032635 1.0740792
5.4856205 -4.0163374 1.3215431
5.5002646 -4.0300093 -0.35734996
5.4548535 -3.9996643 1.5616102
5.4306893 -3.9834034 -0.11755942
5.4755831 -4.0192738 1.8200157
5.4496198 -4.0251517 0.11825751
5.4312387 -4.0159717 0.35400045
5.4431219 -4.0291681 0.59248471
5.4266577 -4.0272532 1.0703248
5.4416881 -4.0428286 1.317727
3.4268093 -2.5477583 -0.22378856
5.415854 -4.0295057 1.558461
4.6054888 -3.4278264 -0.10021172
5.4164033 -4.0343223 1.8096628
4.6229 -3.4646668 0.10084001
4.6090641 -3.4580686 0.3019785
4.6151366 -3.4664023 0.50498033
4.606926 -3.4652689 0.7078172
4.5983529 -3.4625916 0.91170013
2.1544755 -1.6235136 -0.23601775
4.5996861 -3.4673707 1.1196673
3.421695 -2.5812421 -0.22462595
4.5912724 -3.4660578 1.3281111
4.5782547 -3.457485 -0.10014191
4.5820484 -3.4628625 1.538938
2.1399233 -1.6360948 -0.23566914
3.371871 -2.5807889 -0.22253251
4.7809916 -3.6632836 -0.1051333
4.9413939 -3.8122592 0.10893792
4.9159918 -3.7967696 0.32552966
4.9177837 -3.8022666 0.54385179
4.9630494 -3.8428037 0.77070183
4.930511 -3.8217406 0.98804021
2.1347463 -1.6558788 -0.23636638
4.9199796 -3.8177025 1.2104924
3.3506169 -2.6018157 -0.22232316
4.9101958 -3.8156059 1.4356377
5.0994763 -3.9641194 -0.11274255
4.9251285 -3.8313475 1.6719712
5.1807852 -4.0549588 0.11483683
5.1471972 -4.0330172 0.34269586
5.1780024 -4.061532 0.57575083
5.1640172 -4.0563884 0.80628765
5.1645794 -4.0612044 1.0406022
2.1795003 -1.7150979 -0.24264158
5.1909337 -4.086329 1.2841446
3.3700249 -2.6548064 -0.22483528
5.1543159 -4.0633349 1.5152704
5.236546 -4.129642 -0.11640756
5.1788116 -4.0870442 1.7677342
5.2785459 -4.2138076 -0.59091592
5.2424278 -4.1894708 -0.35169765
5.2030878 -4.1908712 0.11661698
5.1805639 -4.1772027 0.34876686
5.206059 -4.2022605 0.585338
5.1856112 -4.1917377 0.81871831
5.1826162 -4.1938052 1.0559328
5.2489991 -4.250556 -0.59091592
5.1821899 -4.1979523 1.2963563
5.1820221 -4.2008128 -0.34960422
5.1561017 -4.1827841 1.5328164
5.1581912 -4.1859717 -0.1159538
5.1752295 -4.2027965 1.7863692
5.1411843 -4.2005239 0.11588398
5.1327233 -4.1980939 0.34751078
5.1365147 -4.2056856 0.5808059
5.1193805 -4.1976295 0.8128686
5.1486316 -4.2261243 1.0549942
5.2199459 -4.2861862 -0.59091592
5.1330376 -4.2178254 1.2913953
5.155654 -4.2394242 -0.34981358
5.1109567 -4.2041659 1.5278676
5.1149468 -4.2104425 -0.11563965
5.1129584 -4.2118011 1.774981
5.147891 -4.2647629 0.11668679
5.1455374 -4.2673583 0.35033691
5.1499443 -4.2770844 0.58568656
5.1380091 -4.2717199 0.8204245
5.1455569 -4.2825541 1.060313
5.1381536 -4.2824669 1.3001726
5.2248545 -4.3562751 -0.35651258
5.1428304 -4.2909312 1.5463136
5.1836672 -4.3280735 -0.11787355
5.1419969 -4.2948036 1.795169
5.2251592 -4.3906488 0.11913013
5.2119112 -4.3841743 0.35693124
5.2258692 -4.4005904 0.59771407
5.2158079 -4.398345 0.83772999
5.215158 -4.4024715 1.0809623
5.2168508 -4.4085808 1.327649
3.2666543 -2.7624917 -0.22420727
5.2072344 -4.4051299 1.5746574
5.2395563 -4.4356117 -0.11982822
5.2150688 -4.4180079 1.8314036
5.2910485 -4.5078144 0.12132913
5.2776852 -4.5012002 0.36352557
5.2828918 -4.5120158 0.60782415
5.2792945 -4.5137258 0.85284173
5.2826195 -4.521359 1.1012988
2.0095518 -1.7211777 -0.23148565
5.2917819 -4.5356054 1.354744
5.3523088 -4.5891042 -0.3694919
5.2784023 -4.528934 1.6057006
5.3085961 -4.5580587 -0.12213194
5.2757359 -4.5314445 1.8634971
5.3577995 -4.6296258 0.12359794
5.3533812 -4.6307068 0.37095729
5.3499594 -4.6326461 0.61915439
5.3526373 -4.6415081 0.86990345
5.350872 -4.6448874 1.1222609
2.0065117 -1.7430047 -0.23253153
5.3488898 -4.6497188 1.377641
5.4437246 -4.7338257 -0.378075
5.3495603 -4.6552215 1.6371938
5.3686361 -4.6751161 -0.12426113
5.3444819 -4.6557217 1.8992143
5.4276142 -4.7565393 0.12597147
5.434196 -4.7690191 0.37891236
5.4349203 -4.7746935 0.63292503
5.4199767 -4.7665958 0.88623393
5.425715 -4.7783642 1.1451004
2.0421336 -1.7991163 -0.23810948
5.419385 -4.7778296 1.4043542
5.5355177 -4.8836503 -0.3868674
5.4352794 -4.7969041 1.6736358
5.4632688 -4.8249989 -0.12722805
5.4239378 -4.7936344 1.93959
5.4606886 -4.8550477 0.1275422
5.4500041 -4.8506589 0.38236654
5.463933 -4.868187 0.64024603
5.4420156 -4.8554778 0.89549601
5.4437885 -4.8621826 1.1560508
1.987923 -1.7761599 -0.23322876
5.4327312 -4.8574224 1.416566
3.2269468 -2.8872509 -0.22692874
5.4365082 -4.8659234 1.6844335
5.419024 -4.8536825 -0.12698372
5.4320588 -4.8687758 1.9546015
5.4364271 -4.9001374 0.12775162
5.4138947 -4.8849673 0.38215721
5.4357271 -4.9115562 0.64094335
2.0552022 -1.8622367 -0.24264158
3.2368062 -2.935986 -0.22902218
5.437036 -4.9351935 1.6952311
5.401289 -4.9061856 -0.12736766
5.4088011 -4.9147315 1.958225
5.39323 -4.9298763 0.1275422
5.3796592 -4.9226446 0.38215721
5.3904161 -4.937676 0.63954884
5.3657751 -4.921998 0.89403361
5.3544078 -4.9167356 1.1513578
1.9893373 -1.8280079 -0.23636638
5.3594608 -4.9265509 1.4150395
3.1750717 -2.9206512 -0.22609136
5.3766422 -4.9492736 1.687133
5.3471751 -4.9238734 -0.12687899
5.3459449 -4.9261899 1.9478723
5.3469491 -4.956532 0.12726295
5.3275933 -4.9437785 0.38090113
5.3470554 -4.9670515 0.63850296
5.3283753 -4.9566336 0.8935461
5.3141699 -4.9486117 1.1501063
2.029001 -1.8907504 -0.24264158
5.3134484 -4.9531369 1.4119867
3.1312373 -2.9209478 -0.2244166
5.3334117 -4.9787097 1.6844335
5.2980547 -4.9474354 -0.12652995
5.3086004 -4.960753 1.9468369
5.3122158 -4.9937391 0.12726295
5.2929502 -4.9808512 0.38090113
5.2890439 -4.9824009 0.63571393
5.2763147 -4.9773655 0.89062124
5.262259 -4.9693165 1.1463519
2.0157518 -1.9048692 -0.24264158
5.2616191 -4.973927 1.4074073
3.1136708 -2.9454818 -0.22462595
5.2787113 -4.9970675 1.6781349
5.2372508 -4.9595523 -0.12590165
5.2766433 -5.0003505 1.9478723
5.2685394 -5.0224252 0.12705351
5.246489 -5.0066509 0.38006377
5.2627764 -5.0274611 0.63675982
5.2270932 -5.0003576 0.88818389
5.2302918 -5.0086641 1.1469777
2.0024042 -1.9188954 -0.24264158
5.2296009 -5.0132551 1.4081705
3.0930319 -2.9671471 -0.22462595
5.23245 -5.0230007 1.6745356
5.211153 -5.0043039 -0.12611109
5.2304626 -5.0263581 1.9437311
5.2074695 -5.0340662 0.12642524
5.1970563 -5.0292668 0.37901706
5.1960673 -5.0335817 0.63292503
5.1749597 -5.0201406 0.88525897
5.1583519 -5.0092764 1.1388431
5.174767 -5.0304837 1.4028277
3.0951478 -3.0109508 -0.2263007
5.1590343 -5.0204463 1.6619384
5.1417069 -5.0070801 -0.12527338
5.1841764 -5.0519643 1.93959
5.1445184 -5.0414033 0.12572713
5.1242065 -5.0267615 0.37619087
5.1366377 -5.0459976 0.62996167
5.1279297 -5.0427222 0.88306534
5.1227283 -5.0428858 1.1385301
1.9757569 -1.9463215 -0.24264158
5.1353273 -5.0623527 1.401683
3.1115563 -3.0684109 -0.22902218
5.1086011 -5.0412836 1.6569895
5.0938196 -5.0302076 -0.12495923
5.1496687 -5.0871348 1.93959
5.0964317 -5.0645099 0.125413
5.0932369 -5.0666385 0.3765049
5.0922894 -5.071003 0.6287415
5.0419979 -5.0279374 0.87429076
5.0832033 -5.0743389 1.1375916
1.9624629 -1.9597248 -0.24264158
5.0813084 -5.0777621 1.3963403
3.0787604 -3.0787604 -0.22818479
5.0727906 -5.0745611 1.6565396
5.0566359 -5.061934 -0.12488942
5.0976505 -5.1065555 1.9333783
5.0590229 -5.0962439 0.12534317
5.0600381 -5.1026073 0.37660959
5.0539594 -5.1035991 0.62839293
4.9992809 -5.0536728 0.8728283
5.0513229 -5.1116319 1.1382173
1.9487338 -1.9733776 -0.24264158
5.0484934 -5.1159072 1.3971035
3.0156541 -3.0569897 -0.22504464
5.0427122 -5.1154037 1.6583391
5.0309978 -5.1070843 -0.12513375
5.0383749 -5.1163592 1.9240609
5.0219226 -5.1300097 0.12530828
5.0117245 -5.1249571 0.37566754
5.0191035 -5.1378813 0.62839293
4.9514027 -5.0756626 0.87063468
5.021029 -5.152431 1.1394688
1.9015491 -1.9526764 -0.2384581
5.0003319 -5.1383638 1.393669
2.9998095 -3.0836945 -0.22546332
4.9905777 -5.1337156 1.6529404
4.9980078 -5.1449513 -0.12520356
4.991766 -5.1403213 1.9199197
4.9887643 -5.1678214 0.12537809
4.961061 -5.1463094 0.37462083
4.9766812 -5.1679249 0.62769562
4.9525557 -5.1554632 1.1322728
1.9209913 -2.0003936 -0.24264158
4.9561815 -5.1646485 1.3913792
2.9749017 -3.1021988 -0.22525398
4.9465246 -5.1599908 1.6502409
4.9315348 -5.1479492 -0.12443566
4.9655433 -5.1870737 1.9240609
4.9461427 -5.1975923 0.12523846
4.9167562 -5.172133 0.37399277
4.9267616 -5.1880956 0.62595254
4.9242306 -5.1926856 0.87867808
4.9069338 -5.1798749 1.1300827
4.9200053 -5.1991229 1.3913792
2.9833622 -3.1548169 -0.22755675
4.8996711 -5.1830683 1.6466417
4.8899827 -5.1764379 -0.12429604
4.9026875 -5.1935172 1.9137081
4.8914886 -5.2107282 0.1247498
4.8814373 -5.2054801 0.37399277
4.8822517 -5.2136383 0.62490666
4.8982644 -5.2362309 0.88038421
3.124975 -3.3440974 0.72491741
3.1235681 -3.3472731 0.88993317
3.0299387 -3.2480743 -0.23279037
3.122654 -3.3498085 1.0572699
3.1022406 -3.3302398 -0.07944335
3.1149173 -3.3450186 1.2247318
3.1230302 -3.3915148 -0.40335676
3.0207102 -3.2838476 -0.23383708
3.0619113 -3.3321371 -0.078989588
3.0926371 -3.3880572 0.080071643
3.0030789 -3.3107729 -0.23425576
3.0454774 -3.3598719 1.0469222
3.0562396 -3.3752952 1.220073
3.0461667 -3.3842981 0.079478264
3.034008 -3.374341 0.23781461
3.046149 -3.3914144 0.39882466
3.0326328 -3.3811116 0.55767417
3.0520692 -3.4099584 0.88955158
2.9745662 -3.3257029 -0.23383708
3.0199392 -3.3776183 1.0460224
3.0557611 -3.422488 1.2293905
3.0016923 -3.3844552 0.2370819
3.0078681 -3.3961914 0.39690727
3.0003407 -3.3912683 0.55596799
2.9995868 -3.3939953 0.7174086
3.0519218 -3.455642 -0.40335676
2.9637525 -3.3593521 -0.23477912
2.9940903 -3.3997152 1.2138613
2.949403 -3.3905091 -0.23551181
2.9766164 -3.4278286 1.2164496
3.0033762 -3.4979167 -0.40335676
2.9915621 -3.4940164 1.2324963
2.9585521 -3.5547476 1.2392256
1.5232477 -2.2023118 -0.23427464
1.5168109 -2.2260644 -0.23566914
1.5101162 -2.2498333 -0.2370636
2.5180771 -3.7557843 -0.23697723
2.5366597 -3.7906475 1.2221435
1.4855824 -2.2470255 -0.23566914
2.4950979 -3.7782719 -0.23729126
2.5037549 -3.7985864 1.2190377
1.470253 -2.2570853 -0.23566914
2.4771969 -3.8058174 0.8826825
2.4643037 -3.7889016 -0.23687255
2.4749627 -3.8067427 1.0482719
2.4609659 -3.7881072 -0.078849971
2.4740195 -3.8111117 1.2174848
2.4598944 -3.812623 0.079199016
2.4657226 -3.826052 0.23854731
2.4570456 -3.8184395 0.39725587
2.4524939 -3.8157551 0.55694294
2.4502409 -3.8166425 0.71834713
1.4458536 -2.2538784 -0.23427464
2.4495072 -3.8213654 0.88230079
2.4395344 -3.8072693 -0.23697723
2.4493771 -3.8255689 1.0487218
2.4376929 -3.8102489 -0.078954689
2.4480212 -3.8278635 1.2174848
-0.44958758 -2.209794 -0.27688718
-0.46827862 -2.2221408 -0.27883708
-1.298061 -2.6298933 -0.25658652
-1.3199667 -2.6278887 -0.25728375
-1.3110799 -2.5653856 -0.25205442
-1.3450484 -2.5882249 -0.25519201
-1.4357082 -2.7161651 -0.26878831
-1.5635556 -2.9099185 -0.28900844
-1.5666372 -2.8674603 -0.28587085
-1.688247 -2.8948848 -0.29319191
-1.7140052 -2.8936114 -0.29423779
-1.6848513 -2.7996352 -0.28587085
-1.7792252 -2.94713 0.92243111
-4.2659149 -2.3763299 0.77341211
-4.271853 -2.3767068 0.95022881
-4.2742853 -2.3741541 1.1288043
-4.2823968 -2.3757265 1.3122126
-4.2600608 -2.3294168 -0.25445744
-4.2802243 -2.335593 1.3065187
-4.2834854 -2.3073833 -0.42566866
-4.3065319 -2.2811544 -0.42636588
-3.9777088 -2.0346205 -0.23415108
-3.9686189 -1.9951392 -0.23279037
-3.9523499 -1.9516561 -0.23101093
-3.964081 -1.9231452 -0.23090626
-3.9806857 -1.897837 -0.23111561
-4.41571 -2.0712905 -0.42671451
-3.9884114 -1.8674595 -0.2308016
-4.432971 -2.0530179 0.25602752
-4.4471025 -2.0557919 0.42863193
-4.4463487 -2.0479138 -0.4282833
-3.9901438 -1.8352605 -0.23017356
-4.421546 -2.0299451 -0.084923409
-4.4533801 -2.0276458 0.085412078
-4.4628072 -2.0262973 0.42880625
-4.4532943 -2.0182297 0.60032845
-4.4656315 -2.0200646 -0.42880625
-4.3687401 -1.9725622 -0.25121263
-4.4297919 -1.9973367 -0.084818691
-4.466928 -1.9878714 0.60032845
-4.4723415 -1.9856056 -0.42810899
-4.044282 -1.7930236 -0.23184831
-4.4289985 -1.9598898 -0.084539458
-4.4822421 -1.9825143 1.3132479
-4.483326 -1.9549903 0.77466357
-4.4769621 -1.9503568 -0.42723745
-4.4761062 -1.9471964 -0.25581816
-4.4959736 -1.9511739 1.3132479
-4.4968648 -1.9236443 0.77466357
-4.5051255 -1.9253167 -0.42863193
-4.5027676 -1.923381 0.95175534
-4.4767327 -1.9104115 -0.25508547
-4.5201511 -1.9242789 1.3163538
-4.5147815 -1.8922789 -0.4282833
-4.5251389 -1.8956927 0.95366341
-4.4973307 -1.8821969 -0.25550416
-4.5307541 -1.8943272 1.1337533
-4.5388222 -1.894909 1.3179066
-4.5481534 -1.8690441 -0.43020076
-4.5346317 -1.8625623 0.95290023
-4.5195994 -1.8545446 -0.25602752
-4.5474749 -1.8641285 1.1346531
-4.564456 -1.8682988 1.3215301
-6.5306983 -2.6319458 -0.61601681
-6.5327072 -2.6261332 1.6254963
-6.5872788 -2.6427288 1.9018024
-6.570827 -2.5883172 1.6304452
-6.6141033 -2.6013646 1.9043906
-6.6194839 -2.550266 1.9007671
-6.6859293 -2.5224013 1.9147433
-1.912812 -0.71098822 -0.25056338
-1.899074 -0.69083124 -0.248126
-1.3698982 -0.49508545 0.39029911
-1.9637456 -0.2237405 0.17291699
-2.0108252 -0.21489556 0.17692617
-2.0321019 -0.20283046 0.17866927
-2.0473223 -0.19028485 0.17988946
-2.0392718 -0.17339329 -0.25129461
-2.0344677 -0.15904424 -0.25056338
-2.0493891 -0.14582384 -0.25226957
-1.9643333 -0.12771639 0.17221974
-2.0543194 -0.1317665 -0.25275704
-2.0611348 -0.11776161 -0.25348827
-1.8200133 -0.09156093 0.22375213
-2.0559587 -0.10307162 -0.25275704
-1.8443929 -0.080205701 0.226677
-1.8726807 -0.06834098 0.23008935
-1.8770709 -0.055710219 0.23057681
-1.9919076 -0.043811906 -0.17431147
-1.7969331 -0.026973618 -0.15722896
-1.8917239 -0.016178844 -0.232283
-1.9056863 -0.0029940091 -0.23398916
-1.861991 0.0097494703 0.22862691
-1.9215413 0.01039664 -0.23593907
-1.9636445 0.079211466 -0.24130133
-1.8837442 0.088834874 -0.23155177
-1.6800028 0.094220549 0.4508628
-1.9453707 0.12273343 0.52229685
-1.923345 0.17402254 0.44585299
-1.9758464 0.17981583 0.53161436
-1.9220831 0.18744577 0.44585299
-1.8685108 0.32610717 -0.16594453
-1.7058557 0.32386678 0.40086278
-1.8793694 0.38099575 -0.23545158
-2.3373845 0.4759708 0.46366587
-1.7011675 0.34765285 0.40086278
-1.6133257 0.35412222 0.44258058
-1.7153028 0.55072337 -0.28533649
-1.9335743 1.6832013 0.68690574
-1.9684224 1.7372298 0.70347023
-1.9864753 1.777986 0.71434063
-2.0197883 1.8333601 0.730905
-2.0424738 1.880125 0.74384594
-2.0758998 1.9378414 0.76092798
-2.1184387 2.0054097 0.78163356
-2.129833 2.0417221 0.68115181
-2.1367981 2.0505478 0.79353923
-2.1654239 2.0999074 0.47775093
-2.1693547 2.1059246 0.58769172
-2.1503105 2.0888956 -0.15711255
-2.1686244 2.1081591 0.69824809
-2.1289001 2.0702651 -0.051833645
-2.1722722 2.1139185 0.8121742
-2.1691794 2.1234763 0.052985508
-2.1839702 2.1401956 0.16025271
-2.1889057 2.14728 0.26826537
-2.1836436 2.1451104 0.37584507
-2.1985991 2.162065 0.48838848
-2.1979723 2.1637137 0.59952188
-2.1669774 2.1346927 -0.15941535
-2.2065904 2.1752338 0.71534431
-2.1727729 2.1426446 -0.053264745
-2.2110889 2.1819522 0.83236206
-2.1997159 2.1836493 0.054102462
-2.2058103 2.1919937 0.16297418
-2.2218874 2.2102833 0.27419198
-2.2108049 2.2023325 0.38315722
-2.2324071 2.2261817 0.49933887
-2.2314429 2.2275517 0.6128785
-2.2057161 2.2034075 -0.16339287
-2.2275727 2.226018 0.72704178
-2.2015953 2.2015951 -0.054346792
-2.2517896 2.2533617 0.85358524
-2.241183 2.2553091 0.055498652
-2.2386799 2.2551506 0.16653302
-2.2526908 2.2724349 0.27994424
-2.2558258 2.2779818 0.39363801
-2.2644365 2.2890728 0.50997645
-2.2779255 2.3059261 0.63005131
-2.2482052 2.2766361 -0.16768442
-2.2680991 2.2983844 0.74548781
-2.2381234 2.2695935 -0.055638272
-2.287936 2.3209157 0.87325549
-2.2869663 2.3337433 0.057034463
-2.2829595 2.3320954 0.17103392
-2.2901049 2.3418462 0.28656808
-2.2925704 2.3476436 0.4029001
-2.3035758 2.3613858 0.52249116
-2.3169842 2.3776197 0.64531606
-2.2866001 2.3480799 -0.17176662
-2.3131561 2.3770101 0.76573336
-2.2839754 2.3478425 -0.057174087
-2.3241935 2.3908553 0.89344335
-2.3234236 2.404295 0.058360845
-2.3304327 2.4140759 0.17584883
-2.3345537 2.4208801 0.29423779
-2.3394654 2.4293661 0.41411206
-2.3555083 2.44859 0.53813463
-2.3601837 2.4560227 0.66210729
-2.3407052 2.4374554 -0.17710489
-2.3585734 2.4577792 0.78642887
-2.3256698 2.4243395 -0.058640085
-2.3649316 2.4669888 0.91570181
-2.359004 2.475467 0.059687231
-2.3823774 2.5026164 0.18108243
-2.3766336 2.499203 0.30173317
-2.3784928 2.5046573 0.42410538
-2.4022534 2.5323319 0.55283946
-2.4023983 2.5351417 0.67889845
-2.3758171 2.5088451 -0.18108243
-2.4163668 2.5534499 0.81162345
-2.3705285 2.505887 -0.060210802
-2.4219689 2.5620556 0.94468951
-2.4101346 2.5647378 0.061432473
-2.42226 2.5803471 0.18547864
-2.4340866 2.5956674 0.3113203
-2.4247224 2.5893018 0.43556106
-2.4560385 2.6254973 0.56942153
-2.4556844 2.627877 0.69912422
-2.4018652 2.5720816 -0.18443193
-2.4516625 2.6272471 0.82961947
-2.4239073 2.5984118 -0.062025853
-2.4725218 2.6523826 0.97160673
-2.4669263 2.6621723 0.063352235
-2.469312 2.6675467 0.1905029
-2.4889517 2.6915886 0.32073313
-2.482003 2.6878371 0.44921044
-2.5019388 2.7122741 0.58443922
-2.5091202 2.7229185 0.71973157
-2.4542017 2.6651878 -0.18987487
-2.5084767 2.7260365 0.85526395
-2.4747512 2.6903296 -0.063805997
-2.5284653 2.7506475 1.0011121
-2.5211215 2.7590461 0.065237097
-2.5206463 2.7614281 0.19594584
-2.5358796 2.7810392 0.32927439
-2.5420318 2.7916977 0.46359101
-2.5520608 2.8056614 0.60070843
-2.571907 2.8304555 0.74339187
-2.516094 2.7709744 -0.19615518
-2.5640264 2.8257437 0.88090831
-2.5177102 2.7756732 -0.06541162
-2.5805578 2.8469574 1.0295821
-2.5714049 2.8538301 0.067052148
-2.5828133 2.8695111 0.20233083
-2.5896707 2.8801608 0.33886153
-2.6060321 2.9024315 0.47894657
-2.6155062 2.9160531 0.62041914
-2.6215198 2.925838 0.76361769
-2.5846186 2.8866785 -0.20306353
-2.6240118 2.9317064 0.90835232
-2.5862565 2.8915555 -0.067715339
-2.6340015 2.9470043 1.0590875
-2.6342831 2.9639368 0.069216244
-2.6454353 2.979625 0.20882049
-2.6389482 2.9880373 -0.20892516
-2.676481 3.0358713 1.0844518
-1.8476553 3.4372125 1.0456289
-1.827701 3.4504685 -0.20463361
-1.820003 3.4431961 1.0435584
-1.8035675 3.4631443 -0.20463361
-1.798593 3.4609609 1.0451113
-1.7914129 3.4902062 0.62135774
-1.7878454 3.4892495 0.76209116
-1.7790426 3.473563 -0.20452894
-3.6042199 7.0432615 1.8266027
-3.596581 7.0374179 2.1176574
-3.6306899 7.156476 0.14007302
-3.6225235 7.1496544 0.42004842
-3.6261492 7.1661134 0.70264959
-3.6320455 7.1902299 0.98909163
-3.6194203 7.1745672 1.272751
-3.6261587 7.1972928 1.5665419
-1.9235787 3.8212867 -0.22420727
-3.5497069 7.0578065 1.8239032
-3.5936561 7.1482968 -0.13965416
-3.5569017 7.0813451 2.1233516
-3.5842092 7.188807 0.14021264
-3.5707376 7.171196 0.41983908
-3.5733674 7.1859045 0.70212668
-3.5658755 7.1834035 0.98470432
-3.5657377 7.1925793 1.2714995
-3.5758271 7.2224307 1.5665419
-1.9588429 3.9599373 -0.2315343
-3.5055285 7.0928984 1.8266027
-3.5454354 7.1767974 -0.13972397
-3.5005379 7.0921464 2.1192105
-3.5348141 7.2154503 0.14024754
-3.5293672 7.2138891 0.42088583
-3.5248659 7.2142544 0.70247525
-3.5208566 7.2188292 0.98616678
-3.5180292 7.2226276 1.2724382
-3.5193028 7.2348614 1.5638705
-1.9328954 3.9771085 -0.23174362
-3.4576309 7.1207027 1.8275024
-3.4926257 7.1959763 -0.13961925
-3.4501004 7.1146722 2.1186929
-3.4826202 7.2363482 0.14017773
-3.4806488 7.2419524 0.42109516
-3.4752769 7.2404828 0.70264959
-3.4703774 7.2432318 0.98616678
-3.46667 7.2452273 1.2721251
-3.4610939 7.2433109 1.560436
-1.9050847 3.9905047 -0.23174362
-3.4111869 7.1517048 1.8293018
-3.4474669 7.2310147 -0.13982868
-3.4020045 7.1420746 2.1197281
-3.4328706 7.2622933 0.14021264
-3.4257426 7.2570453 0.42057177
-3.4280427 7.2717772 0.70334685
-3.4197254 7.2672834 0.98616678
-3.4143243 7.2656775 1.2714995
-3.4137747 7.2744088 1.5619626
-1.8754839 4.0000911 -0.2315343
-3.3545656 7.1612258 1.8257027
-3.401144 7.2639594 -0.1400032
-3.3561568 7.1743984 2.1223164
-3.3820868 7.2860818 0.14021264
-3.3733158 7.2771611 0.42036244
-3.3805401 7.3027639 0.70404404
-3.3705728 7.2945852 0.98665434
-3.3651724 7.2929235 1.2721251
-3.3645532 7.3016286 1.5627258
-1.8491825 4.016715 -0.23174362
-3.3044891 7.1844707 1.8257027
-3.3470075 7.2802591 -0.13986358
-3.3092101 7.2046776 2.1243868
-3.3369429 7.3222537 0.14045697
-3.324084 7.3041692 0.42057177
-3.3253536 7.3171182 0.70317256
-3.3212047 7.3215542 0.98714179
-3.3166215 7.3216381 1.2730639
-3.3134964 7.3249393 1.5627258
-1.8210955 4.0295272 -0.23174362
-3.2590632 7.2180223 1.8284022
-3.2919879 7.2943358 -0.13968907
-3.2524822 7.2135139 2.1202457
-3.283293 7.3398957 0.14035226
-3.2762685 7.3344922 0.4209905
-3.2766242 7.3456135 0.70369548
-3.2740469 7.3536296 0.98836046
-3.2646239 7.3428092 1.272751
-3.2606845 7.344305 1.5619626
-1.7913003 4.0384912 -0.2315343
-3.2101715 7.2441616 1.8293018
-3.2426031 7.3207965 -0.13975887
-3.2020433 7.2360449 2.1202457
-3.2319744 7.362637 0.14035226
-3.2289937 7.3663325 0.42151386
-3.2276587 7.3737845 0.70421833
-3.2210395 7.3726687 0.9878729
-3.2132819 7.3654218 1.272751
-3.2093322 7.36689 1.5619626
-1.7662507 4.0582242 -0.23195298
-3.1654518 7.2765665 1.8320013
-3.195401 7.3524265 -0.13993341
-3.1560643 7.2688551 2.1233516
-3.1833661 7.3881383 0.14042206
-3.1771986 7.3844714 0.42130449
-3.1776776 7.3997989 0.70456702
-3.1723492 7.3980713 0.98836046
-3.1646273 7.3907547 1.2733767
-3.163224 7.4017525 1.564634
-3.1617794 7.4019465 -0.42182785
-3.1099854 7.287734 1.8293018
-3.1494825 7.3874311 -0.14017773
-3.1080282 7.2937241 2.1243868
-3.1363802 7.4212341 0.1406315
-3.126348 7.4083109 0.42140913
-3.1303294 7.4286008 0.70526421
-3.1206234 7.4200377 0.98836046
-3.1144829 7.4163108 1.2740024
-3.1127684 7.4231124 1.564634
-3.1131175 7.4312072 -0.42224655
-3.062041 7.3164592 1.8311015
-3.0975852 7.4050074 -0.14010793
-3.0615022 7.3259392 2.1274927
-3.0799003 7.4318652 0.14042206
-3.0653882 7.4078107 0.42015311
-3.0570879 7.3987141 0.70038354
-3.0490694 7.3939285 0.9820233
-3.0378149 7.3775935 1.2636777
-3.0422091 7.3992677 1.5550934
-3.0535703 7.4342866 -0.42119983
-3.0138507 7.3448687 1.8329012
-3.0200105 7.3635488 -0.13892116
-3.0088179 7.3435588 2.1264575
-3.0046086 7.3957539 0.13934001
-3.0008337 7.3975673 0.41837367
-2.9881575 7.3774037 0.69637436
-2.9780328 7.3671837 0.97568607
-2.9781029 7.3784723 1.2602363
-2.972132 7.3748021 1.545553
-1.6559511 4.1130805 -0.23237166
-2.9639547 7.3693457 1.833801
-2.9513781 7.3417768 -0.13811834
-2.9617965 7.3751416 2.1295633
-2.9403284 7.3849664 0.13874663
-2.9395242 7.3942089 0.41701293
-2.9505472 7.4332709 0.69968635
-2.9309142 7.3988686 0.97714853
-2.9265187 7.3990841 1.2602363
-2.9256213 7.4081531 1.5482242
-2.9348166 7.4390368 -0.41910636
-2.91958 7.4079885 1.8382999
-2.9059105 7.3770885 -0.13839759
-2.9123619 7.4010305 2.1311162
-2.8923371 7.4146271 0.13892116
-2.8856566 7.408967 0.41669893
-2.8899157 7.4314046 0.69759458
-2.8770342 7.4135971 0.97641724
-2.8819292 7.4377537 1.2633649
-2.8773735 7.4375529 1.5501324
-2.8828111 7.4593439 -0.41910636
-2.866981 7.4222369 1.8369503
-2.8601005 7.4121199 -0.13867682
-2.8654857 7.4337997 2.1347394
-2.8467946 7.4472194 0.13916549
-2.8365829 7.4321699 0.41690826
-2.8386734 7.4532609 0.69776887
-2.8314438 7.4459977 0.97812337
-2.8291316 7.4516582 1.2624264
-2.8288572 7.4666395 1.5520406
-2.83197 7.4787941 -0.41910636
-2.8157837 7.4438934 1.8374002
-2.806164 7.4262948 -0.13857211
-2.8223271 7.4730124 2.1404335
-2.7982388 7.4762764 0.13934001
-2.7902203 7.4667592 0.41774565
-2.7878747 7.4724107 0.69776887
-2.7849329 7.4804664 0.98007339
-2.779793 7.4786334 1.2636777
-2.7800171 7.4912434 1.5531853
-1.5259131 4.1162453 -0.23006889
-2.7725444 7.4871273 1.843249
-2.7583261 7.4527254 -0.13871174
-2.7687471 7.4889102 2.1393983
-2.7459798 7.4956279 0.13934001
-2.7421443 7.4973092 0.41837367
-2.7370098 7.4954333 0.69811749
-2.7373986 7.5127831 0.98177958
-2.7329171 7.5127096 1.2661808
-2.7283206 7.5123138 1.5535669
-2.7340841 7.5363817 -0.42015311
-2.7215347 7.5099649 1.8441486
-2.710315 7.4830813 -0.13892116
-2.7203407 7.5189571 2.1425042
-2.6949332 7.5183806 0.13940983
-2.6951201 7.5313139 0.41921103
-2.6899776 7.5293684 0.69951195
-2.680887 7.5204897 0.98031712
-2.6830547 7.5390482 1.2674322
-2.6804128 7.5441265 1.5562382
-2.6787317 7.5477567 -0.41973442
-2.6742616 7.5393357 1.8468481
-2.6613462 7.5112443 -0.13909568
-2.6729386 7.5523348 2.1466453
-2.6503139 7.5554199 0.13975887
-2.6437933 7.5494843 0.41921103
-2.6412902 7.5592494 0.70055783
-2.634865 7.5535583 0.98226702
-2.6355736 7.5683298 1.2693094
-2.6296093 7.5682211 1.5573832
-2.6286073 7.5695868 -0.41994375
-2.6228392 7.5615039 1.847748
-2.6147351 7.5466466 -0.13940983
-2.6239977 7.5776553 2.1487157
-2.6013947 7.5850878 0.13996831
-2.5929649 7.5734277 0.41952509
-2.5942857 7.5902505 0.70177799
-2.5878334 7.5886788 0.98446059
-2.5826726 7.586545 1.2693094
-2.5811949 7.5952368 1.5592911
-2.5808299 7.6028848 -0.42078111
-2.5724924 7.5870109 1.8495475
-2.5633059 7.56427 -0.13940983
-2.574132 7.6049376 2.151304
-2.5547323 7.6220241 0.14031734
-2.545099 7.6064973 0.42036244
-2.5431261 7.6138468 0.70230097
-2.5385566 7.6178598 0.98592305
-2.5321398 7.6118889 1.270561
-2.5330572 7.6279788 1.5623442
-2.5327232 7.6358824 -0.42161852
-2.5255914 7.6232853 1.8540466
-2.5110669 7.5838776 -0.13944472
-2.5209768 7.6227231 2.151304
-2.4989696 7.6320729 0.14017773
-2.4944153 7.6316729 0.42078111
-2.4929996 7.6408863 0.70317256
-2.4889987 7.6467218 0.98738551
-2.4825995 7.6406531 1.2724382
-2.4827704 7.6548133 1.5642521
-2.4867392 7.676178 -0.42287454
-2.4759088 7.6518555 1.8567461
-2.4629829 7.616446 -0.13972397
-2.4682927 7.6419759 2.1518216
-2.4492841 7.6607594 0.14038716
-2.4483659 7.6717329 0.42203718
-2.4432235 7.6694942 0.70421833
-2.4367561 7.667696 0.9878729
-2.4327812 7.669096 1.2743154
-2.429862 7.6738319 1.564634
-1.3153132 4.1589799 -0.22860347
-2.4259505 7.6801043 1.8594455
-2.4145658 7.6487103 -0.1400032
-2.4177864 7.6682339 2.1544099
-2.3987172 7.6872187 0.14056168
-2.3935559 7.6848264 0.42182785
