# .PCD v0.7 - Point Cloud Data file format
VERSION 0.7
FIELDS x y z intensity ring
SIZE 4 4 4 4 2
TYPE F F F F U
COUNT 1 1 1 1 1
WIDTH 1167
HEIGHT 1
VIEWPOINT 0 0 0 1 0 0 0
POINTS 1167
DATA ascii
-1.3767209 -1.3800894 0.23935141 58 11
-1.3973733 -1.3447995 0.23813272 51.25 11
-1.3778521 -1.3620708 0.23788899 48 11
-1.4442668 -1.2697248 0.23612186 54.25 11
-1.4219143 -1.299178 0.23649618 52 11
-1.4668062 -1.2273166 0.23484226 57 11
-1.5120482 -1.1533426 0.23350169 65.5 11
-1.4922967 -1.1798233 0.23358291 63 11
-1.5329871 -1.1114161 0.23250237 65.800003 11
-1.5726786 -1.0430461 0.23171426 67 11
-1.5516365 -1.0683084 0.23130803 68 11
-1.6440139 -0.98516661 0.2353297 18.833334 11
-1.5949553 -0.99968755 0.23113078 61.18182 11
-1.6886495 -0.9481802 0.23779146 67.400002 11
-1.674507 -0.94661933 0.23618281 69 11
2.6218398 -0.73501366 0.2382257 39 10
2.5968792 -0.69123256 0.23511133 41.599998 10
2.5573359 -0.6237725 0.23030034 38.200001 10
2.5823183 -0.65390664 0.23305444 43 10
-1.3583912 -0.57968307 0.18134159 38 11
-1.2921478 -0.54025233 0.22182411 3 12
2.5290067 -0.56519407 0.22672115 39.5 10
-1.2540824 -0.49487939 0.21353307 18.5 12
2.4933662 -0.50289744 0.22253765 38.333332 10
-1.177992 -0.44604385 0.19950612 28.666666 12
2.4847643 -0.44697878 0.2208817 48.833332 10
-1.1683851 -0.38902035 0.20979618 62.625 12
2.4911692 -0.3876102 0.22057872 44.857143 10
2.5314345 -0.38284349 0.22399026 70 10
-1.2151004 -0.3125746 0.19872393 66.333336 12
-1.1813548 -0.33591583 0.21770069 69.428574 13
2.5098479 -0.320934 0.22137558 39.333332 10
2.530709 -0.33586919 0.22335112 76 10
-1.225633 -0.26900488 0.19876119 46.642857 12
-1.1938453 -0.29180273 0.23889287 54.5 13
2.5004871 -0.27304587 0.22006823 43.333332 10
-2.0515213 -0.1881475 0.18023807 33 10
-1.2700534 -0.22828543 0.20438166 34 12
-1.2318327 -0.2090628 0.20594378 42 12
-1.1849524 -0.19345464 0.23338668 57.42857 13
2.4536171 -0.20368877 0.21540543 51.5 10
2.4737306 -0.22330457 0.2173083 48 10
-2.0681272 -0.15591809 0.18145825 39.57143 10
-1.2130914 -0.15990847 0.19380493 52.111111 12
-1.1867126 -0.14471674 0.22278714 64.111115 13
2.3973837 -0.12857875 0.21004534 48 10
2.4231236 -0.15388881 0.21242757 53.666668 10
-2.1074405 -0.084400304 0.18453048 44 10
-2.0926228 -0.11882787 0.18337567 47 10
-1.884619 -0.067782164 0.23155177 1.5 11
-1.8302644 -0.0848331 0.22497082 2 11
-1.2740619 -0.071609937 0.20211335 39.833332 12
-1.2304627 -0.10328878 0.20287609 47.583332 12
-1.1898739 -0.11189707 0.23230997 51.5 13
2.3868668 -0.089140229 0.20897456 56.285713 10
-2.1289606 -0.040875617 0.18629541 34.25 10
-1.869167 -0.054337762 0.22960186 1 11
-1.3865652 -0.020333841 0.21963403 10 12
-1.3428299 -0.033500999 0.2127509 30 12
-1.2997935 -0.050586589 0.20602421 29.5 12
2.3544495 -0.031422634 0.20601128 51.857143 10
-2.2227244 0.058980316 0.19453162 64 10
-2.1949003 0.055941574 0.19209124 40 10
-2.0719216 0.026037998 0.18128395 10 10
-1.8619854 0.010724345 0.22862691 1 11
-1.7591882 0.043617558 0.21607435 1 11
-1.719641 0.036916927 0.21119958 1 11
-1.4935027 0.050977621 0.23668537 1 12
2.3208723 0.029803321 0.20307288 48 10
-2.1911595 0.079768978 0.19182979 40.25 10
-1.7256513 0.069007337 0.21205269 1 11
-1.6657577 0.075544469 0.20474051 1 11
-1.5900078 0.097761489 0.19560032 1.8333334 11
-1.4785795 0.086339355 0.23459959 1 12
2.2713594 0.11585826 0.19897656 59 10
2.2946126 0.085160457 0.20089398 53 10
-1.624429 0.14756426 0.20029227 10.75 11
-1.6161423 0.14282425 0.19921577 13 11
-1.4725456 0.14781803 0.23441707 1.8333334 12
2.2537692 0.15440048 0.19764744 63.5 10
-2.3046331 0.22048755 0.20254993 44 10
-2.2723508 0.21737608 0.19971739 34 10
-1.4729079 0.21031088 0.23566855 13.083333 12
2.2089539 0.22405235 0.1942527 63.200001 10
2.2260752 0.19709647 0.19551939 61.333332 10
-2.3040972 0.26918259 0.20295666 41.5 10
-1.4855244 0.24885732 0.23856258 22 12
2.0898514 0.29761404 0.18468302 16 10
2.1278946 0.27016243 0.18766375 63.400002 10
2.1962807 0.25081688 0.19339859 68 10
-2.3498528 0.35768926 0.2079536 48 10
-2.3302414 0.32145298 0.20580375 45 10
2.0375049 0.33828697 0.18070291 56.666668 10
2.0474222 0.32106078 0.1813188 53.599998 10
-2.3174958 0.3937003 0.20566577 55.25 10
0.86864811 0.39870217 0.20388241 55.096775 14
0.9044919 0.38645107 0.19119063 30 13
2.0283313 0.36057079 0.18023807 58 10
-2.3123903 0.45101026 0.20612334 59.333332 10
-2.2698417 0.47564107 0.20289856 35 10
0.82927543 0.46111101 0.19931653 63.952381 13
0.84866154 0.43931895 0.20495796 56.450001 14
-2.2368903 0.49782628 0.20049307 34.400002 10
-2.1903334 0.52285999 0.19701557 41.75 10
-2.1510296 0.53073269 0.19383438 47 10
0.80767 0.51004994 0.20317289 59.349998 14
-2.1237955 0.55419618 0.19203316 45.833332 10
-2.0628493 0.58468419 0.18758821 40.333332 10
0.76799101 0.57656592 0.20421521 57.42857 14
0.78812778 0.55242497 0.20606023 56 14
-2.0184152 0.61798704 0.18468301 42.333332 10
-1.9611285 0.64247918 0.18055181 40.799999 10
0.71700954 0.65403551 0.18864651 60.333332 13
0.74106532 0.62812096 0.20796017 50.076923 14
1.8359528 0.65519822 0.23935141 60 11
0.70259011 0.69211817 0.20811813 45.60606 13
0.72365224 0.66818833 0.21838889 41.5 14
1.8324995 0.66769981 0.23947328 61 11
-1.8050299 0.72287631 0.23874205 54.5 11
-1.7645453 0.74228197 0.23505551 55.125 11
-1.6971858 0.74889243 0.22777382 45.5 11
-1.6330714 0.73427379 0.21985231 66.5 11
-1.5929086 0.73620784 0.21546501 47.5 11
-1.5308219 0.75666404 0.20968175 67 11
0.65301514 0.77032948 0.20856671 48.333332 13
0.67478573 0.74412185 0.21474263 45.125 14
-1.5046772 0.78095007 0.20815286 68 11
-1.4684453 0.80381322 0.20556039 77.454544 11
0.63978428 0.80591089 0.2174363 48.75 13
0.66049659 0.7813161 0.23619862 45 14
-1.4777571 0.86657101 0.21034652 43 11
0.5938468 0.89299148 0.20845884 54.75 13
0.61446804 0.86414039 0.20612827 54.42857 13
-1.5126394 0.92998397 0.21802427 40 11
-1.498914 0.90099424 0.21473379 45 11
0.5750193 0.93706638 0.21373151 54.799999 13
0.60066319 0.92317635 0.21408771 55 13
-1.5397209 0.98391813 0.22436148 36.666668 11
0.53092533 1.0082493 0.21465202 54 13
0.54949838 0.98184925 0.21871483 54.125 13
-1.5799477 1.0485802 0.23283139 31 11
0.47709164 1.0791595 0.22935241 49 13
0.50532854 1.0489986 0.20693757 52.107143 13
-1.5999813 1.0943369 0.23801084 27.25 11
0.46489501 1.1147705 0.21522541 51.400002 13
0.48837462 1.0870479 0.21022612 51.666668 12
0.44004858 1.173717 0.19855145 47.23077 12
-1.6932492 1.2538549 0.18433438 24.5 10
-1.6689672 1.2179284 0.18076101 26 10
0.40252039 1.2342467 0.20563312 42.416668 12
-1.7182302 1.3002527 0.18851787 24.25 10
0.35459521 1.3051561 0.21421094 39 12
0.37188819 1.283372 0.21163352 38.57143 12
-1.7572336 1.3785902 0.19540317 20 10
-1.7360799 1.3425231 0.1920041 20 10
0.33411986 1.3525074 0.22066648 40.200001 12
-1.7828866 1.4184331 0.19932517 20.5 10
0.29296175 1.4247202 0.23037584 36.666668 12
0.309995 1.4127414 0.22908266 38.599998 12
-1.8192352 1.4789202 0.20512104 20.25 10
0.27527663 1.4668196 0.20828086 50.411766 11
-1.8363328 1.5248244 0.20882514 20.5 10
0.23007186 1.5437191 0.19163957 54 11
0.25085348 1.5174347 0.18884876 57.200001 11
-1.8796153 1.5941069 0.21562332 19 10
-1.8586011 1.5634246 0.2124857 18 10
0.20511711 1.5884551 0.19666232 52.857143 11
-1.9252421 1.669462 0.22294438 20 10
-1.9062066 1.6396663 0.21998107 18 10
0.17117059 1.6606643 0.20498425 51.5 11
0.18394892 1.6333207 0.20181565 51 11
-1.9466007 1.7101336 0.22669208 19.5 10
0.14604753 1.706349 0.21028557 44.125 11
-1.9940115 1.7992004 0.23497188 18 10
-1.9646709 1.7498477 0.23017831 16.5 10
0.10874414 1.7769437 0.218593 40.833332 11
-2.0054271 1.813314 0.23654069 17 10
0.076326534 1.829036 0.22477584 36.799999 11
0.043402486 1.8957512 0.2328314 31.75 11
0.061346263 1.8689504 0.22960186 33 11
0.017369933 1.9368641 0.23782805 26.25 11
-0.063765004 2.0990102 0.1837243 21 10
-0.043168057 2.0709608 0.18122584 25.666666 10
-0.081301726 2.1298759 0.18647842 19 10
-0.12803702 2.21383 0.19400868 19.5 10
-0.11115402 2.1828227 0.19121969 18.5 10
-0.15456098 2.2620513 0.19836646 18.5 10
-0.18216124 2.311976 0.20289856 18.5 10
-0.21154729 2.371974 0.2083458 19.75 10
-0.24939209 2.4392364 0.21451934 21 10
-2.3808475 2.504071 0.18108243 10 9
-0.27661645 2.4850862 0.21876092 18.666666 10
-0.30785733 2.5476642 0.22451319 18.5 10
-2.4215913 2.5823433 0.18553099 9 9
-0.34363037 2.6149275 0.23074482 16.25 10
-2.4760458 2.6776419 0.19113094 10 9
-0.3787109 2.6659498 0.23558196 13.5 10
-2.5288577 2.772861 0.19667855 9 9
-2.5828133 2.8695111 0.20233083 7 9
-2.6030006 2.8970206 0.20411025 9 9
-2.6491723 2.986989 0.20923917 11.5 9
-2.6411383 3.0233297 0.21039055 46 9
-2.6300304 3.0250323 0.21007654 34.5 9
-2.6486783 3.1143904 0.21426342 68 9
-2.6374464 3.0609071 0.2117513 68 9
-2.6130452 3.1384697 0.21402793 64 9
-2.5595026 3.1623974 0.21321672 56.75 9
-2.5219126 3.1835732 0.21285036 66 9
-2.4849024 3.2049353 0.21253633 67.5 9
-2.4289362 3.2244554 0.21156812 71.25 9
-2.3769641 3.2608261 0.21147914 70.599998 9
-2.3179464 3.2855868 0.21073073 72.75 9
-2.2916765 3.3009763 0.21059991 72 9
-2.2488587 3.3338301 0.21075694 66.666664 9
-2.1957481 3.3548112 0.21012887 67 9
-2.1704009 3.3665133 0.20991954 67 9
-2.1299994 3.3971043 0.21013935 79.400002 9
-1.9537404 3.4083233 0.20588967 50 9
-1.8894103 3.4050548 0.2040841 36 9
-2.1090667 3.4228814 0.21070457 92 9
-2.0646772 3.4335065 0.20997187 91.25 9
-2.0233748 3.4453015 0.20939618 77.5 9
-1.8339896 3.4444191 0.20451148 41.333332 9
-1.7898155 3.4758885 0.20489529 27 9
2.7420774 -3.6680789 0.24001274 82 9
2.8401885 -3.6066051 0.24058841 71.5 9
2.850239 -3.599977 0.24064074 67 9
2.9101553 -3.5688171 0.24133857 72.5 9
2.9595208 -3.5276508 0.24132112 67.5 9
-1.5300627 -3.0334673 0.29724467 30.5 10
-1.4687382 -3.0055294 0.29266897 29.333334 10
4.2516651 -3.0092328 0.27298436 15 9
-1.4450026 -2.9971371 0.29110017 30 10
-1.4106793 -2.9749012 0.2880497 32 10
-1.379554 -2.9598129 0.28569651 33 10
4.243979 -2.9993474 0.27235636 22 9
-1.7808558 -2.9278429 0.29981574 18 10
-1.3494173 -2.9342287 0.28255892 31.666666 10
-1.2922801 -2.9064918 0.27828828 31 10
-1.2473346 -2.8838012 0.2748892 31 10
4.1959743 -2.9217114 0.26796013 13 9
4.2070389 -2.9337797 0.26879749 13 9
-1.224058 -2.8692086 0.27291366 30.666666 10
-1.1690266 -2.8389845 0.26861399 35.5 10
-1.1298413 -2.8248057 0.26617363 38 10
4.1683292 -2.8616049 0.26497698 12.5 9
-1.1053332 -2.8045092 0.26373327 37.333332 10
-1.0520904 -2.7716961 0.25937548 32.5 10
4.1228571 -2.7882376 0.26084244 15 9
-0.99177206 -2.7443047 0.25529659 33 10
-0.94481683 -2.715322 0.25153148 36 10
4.093781 -2.7276306 0.25780696 23.5 9
-0.91192454 -2.6915064 0.24862628 36.333332 10
-0.86737162 -2.670949 0.24569204 37.5 10
-0.8296603 -2.6474462 0.24272874 37.5 10
4.0601201 -2.6644728 0.25450978 13 9
-0.80533159 -2.6341205 0.24098563 36 10
4.0080142 -2.5889332 0.25006124 11 9
4.022521 -2.6032815 0.25110796 13 9
3.9479616 -2.5160975 0.24535099 11 9
-0.3947722 -2.4028184 0.29898614 36.666668 11
-4.2740479 -2.3509815 0.25564373 99.666664 9
-0.37089944 -2.3912187 0.2971175 38.666668 11
-0.32662109 -2.3589056 0.29240519 38 11
-0.28589401 -2.3442175 0.28996781 36.666668 11
-4.2976913 -2.3060081 0.25560883 99.833336 9
-0.26169345 -2.3303957 0.28793666 37.333332 11
-0.21311492 -2.3019743 0.2838642 37.25 11
-0.17270799 -2.2862678 0.28151822 41 11
-4.3361063 -2.2451365 0.2559019 100 9
-4.3195233 -2.2649152 0.25560883 100 9
-0.143052 -2.265527 0.27873263 41.857143 11
-0.093553483 -2.2403789 0.27532727 44 11
-4.3633561 -2.1873882 0.25580072 99.5 9
-0.072671406 -2.2022536 0.27054995 38 11
-0.034937888 -2.2013721 0.27033672 42.625 11
0.024720911 -2.1723278 0.26675463 44.714287 11
0.25648937 -2.1724725 0.26860005 80.666664 11
-4.3991075 -2.1268368 0.25607985 100 9
0.031951502 -2.1535883 0.26445648 40 11
0.084862962 -2.1374357 0.26265892 42.125 11
0.14437474 -2.1322541 0.2624152 44.5 11
0.19603263 -2.130075 0.26265281 41.799999 11
0.27358946 -2.1495221 0.26606518 52.400002 11
0.32677767 -2.1209922 0.26350865 57.888889 11
-4.4290013 -2.0662274 0.25613219 100 9
0.35778353 -2.09974 0.26153165 55 11
0.39143151 -2.0845742 0.26043481 59 11
0.44523847 -2.0542026 0.25808883 57.5 11
0.48025265 -2.0435615 0.25775367 61 11
0.51178008 -2.0189388 0.25574285 62.875 11
0.55725384 -1.992641 0.25405699 59.333332 11
0.58907509 -1.9734782 0.2528789 64.25 11
0.63360167 -1.9484861 0.25158709 68.5 11
0.67810172 -1.9331225 0.25153834 70.666664 11
0.69957113 -1.9011159 0.24873535 69 11
0.7451871 -1.8820685 0.24855256 73.875 11
0.78496546 -1.8664461 0.24861349 77 11
-1.157464 -1.8351485 0.26640639 40 11
0.77125633 -1.8560278 0.24678545 82.5 11
0.81067157 -1.8396428 0.24684638 76.375 11
0.84516215 -1.820281 0.24641985 75.666664 11
-1.1725167 -1.7677469 0.26046526 43.375 11
0.86131227 -1.7676195 0.24144754 44.799999 11
-1.2095728 -1.7008536 0.25626686 44.200001 11
-1.1956675 -1.7274441 0.25795677 42.333332 11
-1.2356827 -1.6550155 0.25361013 46.75 11
-1.269436 -1.589113 0.24973468 48.599998 11
-1.2530183 -1.6115084 0.25064465 49 11
-1.2940601 -1.5351747 0.24654169 50.299999 11
-1.3332556 -1.4639601 0.24312937 52.5 11
-1.3123065 -1.4859018 0.24341373 52 11
-1.3593346 -1.4119908 0.24066758 51 11
2.9769902 -1.3347961 0.28543505 30 10
2.9278803 -1.2883008 0.2798571 33.5 10
2.8957767 -1.2383533 0.27554289 34 10
2.8698466 -1.1804174 0.27149013 33 10
-1.537623 -1.0996693 0.29941562 59.333332 12
2.8076131 -1.0974661 0.2637333 38 10
2.8372505 -1.1254808 0.26704517 37.666668 10
-1.5756302 -1.0359567 0.29867253 59.25 12
-1.5551581 -1.0608571 0.29816413 62 12
2.8016648 -1.0561492 0.26195529 38.599998 10
-1.598902 -0.99739099 0.29847699 51.125 12
2.7517531 -0.96742749 0.25519201 36.5 10
2.7677639 -1.0015703 0.25751618 35 10
2.7300253 -0.92808926 0.25227231 37.75 10
2.6902447 -0.85618544 0.24699938 39.333332 10
2.7125702 -0.8908 0.24978836 39 10
2.6589434 -0.80782223 0.24312964 38.599998 10
2.6389463 -0.76468742 0.24037553 38 10
2.6440175 -0.76865852 0.24089848 40 10
-1.278547 -0.49854004 0.26675099 30 13
-1.2223241 -0.44776541 0.28658623 44.42857 14
-1.1925465 -0.43390545 0.24667788 42 13
-1.1692804 -0.38832214 0.27151132 83.071426 14
-1.2042881 -0.30674553 0.2415642 66 13
-1.164804 -0.32907835 0.27151856 95.705879 14
-1.2630687 -0.25797406 0.25059581 57.666668 13
-1.2288041 -0.27133605 0.26601964 72.411766 13
-1.1827619 -0.28418642 0.28086749 87.14286 14
-1.2168674 -0.22502796 0.24054654 69 13
-1.1750324 -0.20984007 0.27559716 91.85714 14
2.4209342 -0.18203095 0.29809242 40 11
-1.2027116 -0.12503147 0.27916425 67 14
-1.1750785 -0.1532694 0.2736097 95.153847 14
2.4076617 -0.15103273 0.29621217 44.285713 11
-1.2796397 -0.080020182 0.24923472 53 13
-1.22141 -0.11406212 0.28321338 49 14
2.368305 -0.086398177 0.29099354 44.875 11
-1.6158582 -0.00028224743 0.25592682 1 12
-1.4012244 -0.0098228473 0.27237985 43.75 13
-1.3413593 -0.039440092 0.26085711 43.333332 13
2.3324537 -0.011805709 0.28639299 44 11
2.3470719 -0.036574315 0.288221 42.5 11
-1.6148713 0.023844877 0.25580168 1 12
-1.5333152 0.041620314 0.24294275 1 12
-1.416087 0.031759687 0.27535206 36 13
2.3136315 0.028222291 0.28410792 46.875 11
-1.4433762 0.10118373 0.28125247 20 13
-1.4207661 0.090708792 0.27674937 23.799999 13
2.2745667 0.10219719 0.27956828 52 11
2.2863822 0.079929546 0.28090885 48.5 11
-1.4657564 0.15322398 0.28648064 8.8000002 13
-1.4398665 0.12116209 0.28087085 12 13
2.241653 0.15211545 0.27588174 60.5 11
-2.1623971 0.23987718 0.26713762 1 11
-1.5112331 0.20043403 0.2963264 3 13
-1.4970912 0.19481118 0.29346427 3.3333333 13
2.2005091 0.21877158 0.27152494 63.5 11
2.2241445 0.18989374 0.27408418 55.5 11
-2.3120422 0.28187081 0.28598675 11.333333 11
-2.2642117 0.25803831 0.27981204 1.5 11
-1.5129582 0.28615466 0.24388136 25 12
-1.4944532 0.26109248 0.24028336 24.5 12
2.0838749 0.2880469 0.25830209 30.75 11
2.133966 0.26484376 0.26402998 63 11
2.1874237 0.24826252 0.27030623 62 11
-2.3548276 0.33624253 0.29208019 33.333332 11
-2.3248427 0.31709501 0.28809914 10.333333 11
-1.534369 0.31791332 0.24818331 17.5 12
2.01882 0.33745068 0.25132945 52.714287 11
2.0470169 0.3149403 0.25430071 48 11
-2.359179 0.37851843 0.29338017 47.333332 11
-2.3107438 0.39928141 0.28793666 49.333332 11
0.86716658 0.39674687 0.25556099 50.764706 15
1.9782572 0.40769732 0.24800414 55.5 11
1.9979733 0.38302708 0.24979155 55.833332 11
-2.3065443 0.4514612 0.28858665 53.5 11
-2.2711182 0.4765296 0.28493056 32 11
0.83037859 0.45974541 0.25434855 58.272728 15
0.85203415 0.43996012 0.25697857 57 15
1.9578266 0.44617504 0.24656609 55.400002 11
-2.2510471 0.48959932 0.28285876 32 11
-2.1827216 0.51815999 0.27545956 39.714287 11
0.77399194 0.53823197 0.25260741 58.5 15
0.80915993 0.50996721 0.25633436 55.900002 15
1.9116439 0.52752709 0.24349497 58.5 11
1.9317268 0.49706945 0.24491678 56.833332 11
-2.1206241 0.54701596 0.26890475 42.5 11
-2.0708871 0.57712591 0.26396903 42.142857 11
-2.0368719 0.5952369 0.26055667 41 11
0.76401788 0.57783908 0.25670537 54.666668 15
0.79048103 0.56209171 0.25992829 54.857143 15
1.8909416 0.57167464 0.24256876 58.799999 11
-2.0040004 0.61492795 0.25738806 40 11
-1.952181 0.64357853 0.25239143 42.5 11
-1.9069726 0.6566236 0.24763852 37 11
0.71556211 0.64883238 0.25881904 51 15
0.74238062 0.62889844 0.26075336 51.842106 15
1.8498873 0.64951468 0.2407326 58.666668 11
1.8648129 0.62114638 0.24134193 58.666668 11
-1.8893926 0.67741579 0.24645464 40.42857 11
-1.8324909 0.70443469 0.24105757 48 11
0.7006408 0.69434381 0.26435131 51.4375 15
0.7271862 0.67754316 0.26632482 53.5 15
1.8299147 0.6954217 0.240367 59.5 11
-1.7339061 0.75320411 0.29941559 52 12
-1.6439326 0.7332592 0.28510186 49.75 12
-1.5945969 0.73797935 0.27829695 44.75 12
-1.5279171 0.75624198 0.27003437 49.454544 12
-1.4851017 0.77703679 0.26546931 50 12
0.65406513 0.77261281 0.27124238 52 15
0.67442834 0.74451005 0.26920635 53.933334 15
1.8511655 0.73311454 0.24446994 65 11
-1.4684862 0.80444914 0.2652086 51.111111 12
0.64045799 0.8125307 0.26758525 51.400002 15
0.66864944 0.78302646 0.27590114 56 15
-1.4798808 0.86199427 0.2712574 33 12
0.59286946 0.88871413 0.25992489 56 14
0.61552989 0.86237204 0.26825586 52.200001 15
-1.5106294 0.92530143 0.28058088 34 12
-1.497721 0.90170103 0.27688903 32 12
0.57024294 0.93010634 0.27546754 60.322582 15
-1.5643612 1.011282 0.29503545 30.666666 12
-1.5427732 0.97660333 0.28919521 32.333332 12
0.52876973 0.99579591 0.26348412 68.53846 14
0.54998165 0.96754509 0.27067667 62.777779 14
-1.5765779 1.0395591 0.29910272 30.5 12
0.49945149 1.0475806 0.2679542 72.833336 14
-1.6214126 1.134903 0.2430075 28 11
-1.6144626 1.1275214 0.24178879 26 11
0.46709913 1.1163253 0.2793892 78.800003 14
0.48485336 1.0874847 0.27489018 79.666664 14
-1.6459299 1.1767024 0.24843067 27 11
0.41616428 1.1984278 0.29288626 94 14
0.4363496 1.1670964 0.26695764 72.454544 14
-1.6862838 1.2502933 0.25775367 26 11
-1.6740302 1.2234089 0.25458509 25.5 11
0.40657252 1.2225646 0.27046293 71.071426 13
0.42489964 1.2136989 0.2499598 57 13
-1.7110788 1.2966245 0.26360342 23.75 11
0.38005424 1.2829746 0.26011083 50.200001 13
-1.7444957 1.3622482 0.27176866 21.5 11
-1.7351018 1.3420068 0.26933128 20 11
0.34488672 1.3437542 0.26967674 46.222221 13
0.36679682 1.3244245 0.26713261 52 13
-1.7724215 1.4048705 0.27769962 20 11
0.29363695 1.436854 0.28506866 46 13
0.31494868 1.4052334 0.27993798 46.444443 13
-1.811224 1.4743798 0.2867586 19.5 11
-1.7979923 1.4513149 0.28371185 18 11
0.27683344 1.4747614 0.29168335 45 13
-1.8451563 1.5274228 0.29411137 18.666666 11
0.23105451 1.5448365 0.24740115 35.75 12
0.24956183 1.5109059 0.26092181 38.333332 12
0.20861889 1.5830498 0.25290242 35.833332 12
0.16704224 1.6692412 0.26570398 33.75 12
0.18689428 1.6368188 0.26093271 34.5 12
0.14164577 1.7130336 0.27224815 32.333332 12
0.10658959 1.7690769 0.28070605 33.200001 12
0.12113999 1.7499467 0.27782765 34 12
-2.0254991 1.8534273 0.24020122 18 10
0.077177778 1.8330791 0.2905927 32.799999 12
-2.0597012 1.9133271 0.2459535 19 10
-2.0308993 1.8622805 0.24107277 17 10
0.046493053 1.8806337 0.29795554 30 12
0.0637777 1.8636649 0.29534832 31 12
-2.0885243 1.9670947 0.25100854 17 10
-0.0020640839 1.9711956 0.24203253 28 11
-2.1129208 2.0180955 0.25562781 14 10
-0.019867113 2.0095832 0.24676105 27.4 11
-2.1497674 2.0818186 0.26181585 18 10
-0.062375292 2.0893717 0.25665686 24 11
-0.050461907 2.0585744 0.25283828 26.333334 11
-2.1906226 2.1512189 0.26861399 22 10
-0.084407061 2.1258342 0.26122695 20.75 11
-2.2235518 2.2142591 0.2745406 16 10
-0.12525582 2.1889536 0.26920941 21 11
-0.10897879 2.1699486 0.26677203 22 11
-2.2522011 2.274322 0.28003138 15.5 10
-0.15259521 2.2548561 0.27749649 20.75 11
-0.19244604 2.3218644 0.28606799 19 11
-0.17918651 2.3076713 0.28419933 19 11
-2.2928472 2.3475227 0.28709102 12 10
-0.22425739 2.3808248 0.29362389 19 11
-2.3454068 2.4380894 0.2959809 12 10
-2.3345537 2.4208801 0.29423779 12 10
-0.23949552 2.4079468 0.2971175 19 11
5.2119112 -4.3841743 0.35693124 22 9
5.2027359 -4.3702583 0.35609388 22 9
5.1462574 -4.2649245 0.35028458 25 9
5.1330066 -4.1945906 0.34740609 54 9
5.1823854 -4.1749415 0.34876686 66 9
5.1471972 -4.0330172 0.34269586 9 9
5.1302629 -4.0125279 0.34133515 9 9
5.436657 -4.0170412 0.35426211 96 9
5.4790978 -3.989572 0.35520416 93 9
4.9159918 -3.7967696 0.32552966 4 9
4.8623595 -3.7485778 0.32176149 4 9
4.6110697 -3.457058 0.30203083 100 9
-1.7090843 -3.0630298 0.30687538 58.5 10
-1.6324524 -3.0854073 0.3053937 42.333332 10
-1.5914211 -3.0754144 0.30295336 28 10
-1.7512121 -3.0161486 0.30513227 55.5 10
-1.7198472 -3.0478075 0.30617812 55.75 10
-1.6507345 -3.0500126 0.30341819 60.333332 10
-1.7676408 -2.9729638 0.30260473 53.5 10
-0.99767315 -2.7379942 0.35780844 30.5 11
-0.94454193 -2.708467 0.35220245 33.25 11
-0.90683305 -2.6899385 0.34854636 33.5 11
-0.86683118 -2.6629181 0.34385437 35.75 11
-0.8224048 -2.6414769 0.33969048 35 11
-0.79092759 -2.6234386 0.33644068 34.666668 11
-0.74766338 -2.6008279 0.33227682 34 11
-0.6894663 -2.565989 0.32624426 36.5 11
-0.63292754 -2.5299294 0.32021171 36.25 11
-0.60063219 -2.5056667 0.31637284 37 11
-0.57081366 -2.5000184 0.31486979 37.666668 11
-0.51084888 -2.4695148 0.30964565 38 11
-0.49724117 -2.459394 0.30808574 38 11
-0.45044053 -2.4377282 0.30438903 37.5 11
-0.41829157 -2.4116118 0.30052981 35 11
-0.12418103 -2.2672973 0.35964286 44 12
-0.087316513 -2.245661 0.35595551 46.142857 12
-0.052034892 -2.2246428 0.35244691 47 12
-0.025184458 -2.2023733 0.34884891 49.599998 12
0.017042646 -2.1830194 0.34577236 48.333332 12
0.25244266 -2.1711144 0.3461895 59.5 12
0.046911895 -2.158577 0.34196579 49 12
0.087905064 -2.1409523 0.33939329 50.888889 12
0.15079483 -2.1329484 0.33868065 38.875 12
0.20560855 -2.1353223 0.33977568 49.5 12
0.27951327 -2.1448889 0.34259152 62 12
0.3290697 -2.1213644 0.34002599 58.900002 12
0.37866944 -2.1035364 0.33852422 51.5 12
3.3936 -2.1300435 0.3505404 26 10
0.39523971 -2.0843523 0.33602127 56.166668 12
0.44570649 -2.0615129 0.33406582 55.25 12
3.3679559 -2.0655165 0.34565964 54.75 10
0.4775148 -2.0366945 0.33132821 56.5 12
0.51265478 -2.0267959 0.33113268 56.5 12
0.56497061 -1.9974484 0.32878616 58.25 12
3.3721452 -2.0046179 0.34321931 66.5 10
0.59686518 -1.9781599 0.32726091 62 12
0.63281465 -1.9599482 0.32621807 61.111111 12
0.68346554 -1.9277116 0.32395348 66.571426 12
3.4024491 -1.9747112 0.34417802 74 10
3.4556875 -1.9487171 0.34709775 67.25 10
3.4833782 -1.9595798 0.34966883 94 10
0.70496452 -1.9191157 0.32381937 71 12
0.74791914 -1.8922932 0.32228631 65.599998 12
0.78799576 -1.8672667 0.32100359 70.666664 12
3.465595 -1.9178489 0.34653121 63 10
3.516113 -1.8959707 0.34949452 72 10
3.5490088 -1.8660381 0.35080186 68 10
-1.1590629 -1.8268516 0.34266973 42.5 12
0.81716138 -1.8490925 0.32019904 71.714287 12
0.84421825 -1.831671 0.3194392 64 12
3.575223 -1.8480798 0.35210919 77.5 10
3.6204581 -1.8240381 0.3546803 70 10
-1.17401 -1.7738231 0.33691519 46.714287 12
0.83845812 -1.7842389 0.31224322 64 12
0.85720152 -1.7722985 0.31182608 63 12
3.6580174 -1.7944198 0.35646698 71 10
3.6887906 -1.7728775 0.35807067 68.599998 10
-1.2166674 -1.7065128 0.33195397 46 12
-1.1883053 -1.7320276 0.33268401 46 12
0.89063561 -1.693185 0.30301359 41.5 12
0.90709388 -1.6821944 0.30270073 55.5 12
3.729718 -1.736819 0.35995319 68 10
-1.2637811 -1.6321958 0.32694808 52 12
-1.2445086 -1.652721 0.32769114 47.75 12
0.9340694 -1.662204 0.30199677 60.25 12
0.99054748 -1.6460202 0.30428246 58.555557 12
1.0299363 -1.6508057 0.30817595 51 12
-1.2800336 -1.5879213 0.32305461 54.666668 12
-1.3214878 -1.5026304 0.31693625 60 12
-1.3029244 -1.5283421 0.31809834 57.714287 12
-1.3326716 -1.4675056 0.31398141 56 12
-1.3822969 -1.3861628 0.31005314 53 12
-1.3624625 -1.4082972 0.31036603 55.444443 12
-1.3975232 -1.347396 0.30748069 56.555557 12
-1.4451829 -1.2611578 0.30379578 52 12
-1.4252397 -1.2920451 0.3046996 54.888889 12
-1.4646462 -1.2288424 0.30282873 57.727272 12
-1.508417 -1.1544527 0.3008548 59 12
-1.4946769 -1.1836761 0.30198115 58.799999 12
-1.533692 -1.1177571 0.30060452 60.400002 12
-1.5658348 -1.0697427 0.30035421 62 12
-1.5590826 -1.0795597 0.30035421 60 12
-1.6917582 -0.96782106 0.30869737 77.333336 12
-1.6558027 -0.98989791 0.30554783 12.2 12
-1.6196364 -0.99018282 0.30066708 41 12
2.7497871 -0.97958499 0.35841778 31.5 11
-1.6920403 -0.95264912 0.30755019 67.333336 12
2.7255249 -0.92855984 0.35354298 33 11
2.6783478 -0.86101145 0.34543866 34.25 11
2.7037458 -0.89051545 0.34952128 36 11
2.6581321 -0.80962169 0.34118542 35.400002 11
2.6181619 -0.75202847 0.33447045 33.25 11
2.5778539 -0.67196113 0.32709733 37 11
2.5982916 -0.70161545 0.33046094 36 11
2.5487983 -0.62752134 0.3223038 38.166668 11
2.5089149 -0.55325097 0.3154588 37.5 11
2.5315802 -0.58585835 0.31905395 38 11
-1.3252755 -0.50077999 0.32707885 12 14
-1.3076484 -0.49229452 0.3225798 18 14
2.4877949 -0.50347656 0.31166056 36.833332 11
-1.2415248 -0.43478355 0.33641627 55 15
2.4578557 -0.44179517 0.30662328 64 11
2.4730325 -0.44683337 0.30857319 48.799999 11
-1.2273614 -0.41400754 0.34707636 46 15
-1.1770129 -0.37444746 0.33096486 63.75 15
2.4834087 -0.39045689 0.30867767 46 11
-1.1681323 -0.32729021 0.32507673 83.416664 15
2.5028267 -0.33362779 0.31003562 44.333332 11
2.5470834 -0.33261675 0.31539789 99 11
-1.1775903 -0.27356347 0.32396749 71.85714 15
2.4842327 -0.27302244 0.306867 42 11
-1.16757 -0.20985453 0.31789878 83.066666 15
2.4491491 -0.20870414 0.30180946 41.25 11
2.4661138 -0.23615588 0.30418593 39 11
-1.2375261 -0.14091769 0.33374718 43.375 15
-1.1704628 -0.16465582 0.31672058 66.285713 15
-1.4566406 -0.11975762 0.3374266 80 14
-1.4059809 -0.11756913 0.32572913 69 14
-1.4561149 -0.014489308 0.33618936 25.5 14
-1.5229676 0.053717494 0.35182345 34 14
-1.4741896 0.0214076 0.34039596 47.5 14
2.2629154 0.1134468 0.3588607 52 12
2.2507167 0.15152389 0.35729632 56 12
-1.5712748 0.23174559 0.30872896 1 13
-1.5352819 0.22000083 0.30147821 1 13
2.2098348 0.21856342 0.35171688 54.833332 12
2.2271357 0.1889753 0.35401124 54 12
-1.64328 0.28469461 0.32418451 1 13
-1.6009227 0.25214124 0.31502566 1 13
2.094934 0.26539436 0.33445692 68 12
2.1156819 0.28158826 0.33805493 50.666668 12
2.1776078 0.25076935 0.34718028 56.666668 12
2.0268455 0.34013984 0.3255178 54.285713 12
2.0503821 0.30861124 0.32840812 41.333332 12
1.9796067 0.40599489 0.32006493 58 12
1.9990008 0.38636166 0.32247853 56.285713 12
-2.1714523 0.47265932 0.35197759 20 12
1.9592839 0.45256525 0.31850058 58.625 12
1.9861645 0.42289636 0.32162932 57 12
-2.1809762 0.51541591 0.35494983 34.75 12
-2.1505558 0.53201395 0.35088253 40.5 12
1.913504 0.52283877 0.31418306 58.799999 12
1.9346879 0.49369296 0.31624794 61.200001 12
-2.1262128 0.54965752 0.34783208 41 12
-2.0658813 0.57691908 0.33973098 41.42857 12
-2.0379674 0.59671533 0.33633414 43 12
1.8905144 0.5703932 0.31277511 63.799999 12
-2.0067623 0.61696702 0.33252755 37.666668 12
-1.9563464 0.64612967 0.32632235 37.5 12
1.8502914 0.63994032 0.31009784 62.857143 12
1.8711491 0.61229581 0.31182608 62.666668 12
-1.9221017 0.66427195 0.32209861 40.5 12
-1.8788406 0.67888737 0.3164148 39.166668 12
-1.8308545 0.7048502 0.31073102 50.833332 12
-1.787569 0.71696758 0.30504724 56.5 12
1.8271692 0.69004661 0.30935788 61.777779 12
-1.7710723 0.73894972 0.30395219 50.833332 12
-1.7384508 0.75265455 0.30004135 56 12
-1.637917 0.7316767 0.34870344 42.5 13
-1.5812157 0.7395857 0.339322 44.833332 13
-1.5303705 0.76170391 0.3322939 53.75 13
1.8239284 0.72177607 0.31067887 51 12
-1.508692 0.78387117 0.3304812 56 13
-1.4736421 0.8052212 0.32643604 58.700001 13
-1.4827404 0.86480623 0.33366135 35.166668 13
-1.5143503 0.92923945 0.3453643 30.6 13
-1.4990938 0.90145844 0.34002164 34 13
-1.5342534 0.97521973 0.35337827 30.5 13
0.52851737 0.99779749 0.30255949 65.125 15
0.54230678 0.9893139 0.30230066 65 15
-1.5856954 1.0615315 0.30223143 30.5 12
0.50662106 1.0468814 0.31165794 69 15
-1.6223752 1.1286585 0.31302541 28.5 12
-1.6030928 1.0945638 0.30744588 29.666666 12
0.46878433 1.1184918 0.32497317 71.900002 15
0.48583406 1.084206 0.31834742 70.75 15
-1.6408217 1.1650835 0.31873527 28.25 12
0.41698769 1.1987733 0.34008822 69 15
0.43993464 1.1736156 0.33586085 67.416664 15
-1.687822 1.2403187 0.33174539 25.333334 12
-1.6690271 1.2046257 0.32600945 28 12
0.39551878 1.2414222 0.32917619 77.529411 15
0.42185143 1.2154896 0.34474698 72 15
-1.7140092 1.290867 0.33985391 24.25 12
0.3516506 1.3106103 0.31328183 94 14
0.37026274 1.2817353 0.33455703 76.692307 15
-1.7485082 1.3555548 0.35041326 24.5 12
-1.7288717 1.3227789 0.34478158 25 12
0.33531427 1.3599248 0.32337964 91.666664 14
-1.7741804 1.394896 0.35745278 21 12
0.28985149 1.4273365 0.33625683 91 14
0.30913857 1.4009415 0.33121794 89.800003 14
0.2645503 1.4759891 0.34619969 88.375 14
0.23080425 1.5400066 0.318764 53.714287 13
0.24469984 1.5188205 0.32692701 63.25 14
-1.87956 1.5963211 0.30278441 18.5 11
0.20847929 1.5927274 0.31223986 38.799999 13
-1.9133991 1.6597829 0.3110106 18.5 11
0.17243235 1.6558859 0.32361209 39.5 13
0.18678007 1.6281378 0.31855562 38 13
-1.9437944 1.7094756 0.31783527 21 11
0.1479339 1.7059954 0.33286631 36.375 13
-1.971814 1.7586775 0.32441622 17 11
0.10125208 1.7820942 0.3469671 31.6 13
0.12088685 1.7440934 0.33983085 33 13
-2.0119238 1.832749 0.33416575 16.5 11
0.075232334 1.8193445 0.35395071 30.5 13
-2.0466313 1.903518 0.34318411 16 11
0.031368218 1.9030082 0.30144924 27 12
-2.0823922 1.9640687 0.35147119 14 11
-0.001886213 1.9654988 0.31130463 28.5 12
0.015836852 1.9338197 0.3062987 28 12
-0.022619678 2.0048676 0.31756198 27 12
-0.06080769 2.0732543 0.32851243 23 12
-0.049433123 2.0603735 0.32642663 23.333334 12
-0.087474138 2.1236768 0.336647 23.4 12
-0.12434397 2.1930966 0.34791028 24 12
-0.10830294 2.1603246 0.34259152 24 12
-0.15073524 2.2448854 0.35635775 21.75 12
-0.25965172 2.4477816 0.30223599 18.5 11
-2.3766336 2.499203 0.30173317 12 10
-0.28231165 2.4952221 0.30832946 18 11
-2.3914046 2.5208957 0.30399922 12 10
-0.31510133 2.5472934 0.31515417 17.5 11
-2.4393058 2.6044283 0.31219187 13 10
-0.37241518 2.6398394 0.32734108 18 11
-0.35004628 2.6078517 0.32307565 16 11
-2.4889517 2.6915886 0.32073313 14 10
-0.37983137 2.6788874 0.33221585 13 11
-2.4915361 2.7000513 0.32143039 13 10
-2.5391159 2.787524 0.32988447 14 10
-2.5983944 2.8924108 0.34016886 14 10
-2.6772194 3.0223374 0.35324222 29.5 10
-2.661113 3.0884242 0.35667616 98.400002 10
-2.6340818 3.0613215 0.35332939 84 10
-2.6097715 3.1506119 0.3579312 84.199997 10
-2.5795527 3.171874 0.35768715 82 10
-2.5473592 3.1875658 0.35698995 82 10
-2.493212 3.2063625 0.35535139 97.400002 10
-2.4360182 3.2373443 0.35446239 100 10
-2.4413986 3.2445347 0.35524678 100 10
-2.371093 3.2671187 0.3531841 100 10
-2.3239417 3.2980595 0.35298073 99.5 10
-2.2980194 3.310112 0.35254496 84 10
-2.2474663 3.3357582 0.35190582 98 10
-2.187506 3.3716714 0.35162982 95.75 10
-2.1302722 3.4004509 0.35106331 100 10
-1.9676819 3.408819 0.3443523 91.5 10
-1.9098833 3.4187312 0.34260923 47.5 10
-2.1033266 3.4242613 0.35158628 100 10
-2.0648899 3.4382539 0.35088903 100 10
-2.0107965 3.4286826 0.34775141 96 10
-1.9459994 3.4269724 0.3447881 32 10
-1.8869236 3.4337306 0.34278354 71.5 10
-1.8345985 3.4502447 0.34188291 65.333336 10
-1.7944164 3.4908094 0.34339362 43.5 10
-0.86491996 5.6806107 0.30114111 24 9
-0.94588566 5.7729945 0.30658406 13 9
-1.0007715 5.8670917 0.31192234 13 9
-1.0099442 5.8898377 0.31317839 13 9
-1.0672206 5.9882965 0.31877834 12 9
-1.1299388 6.0936174 0.32479697 13 9
-1.2001516 6.2205901 0.33201933 13 9
-1.1917068 6.2059436 0.33118194 13 9
-1.2686377 6.3373981 0.33871832 13 9
-1.2572552 6.3091211 0.33714828 11 9
4.8929005 -5.1910024 0.37385321 3 9
4.9240227 -5.170733 0.37420213 4 9
4.9646931 -5.1455803 0.37472549 3.5 9
5.0204997 -5.1303415 0.3761909 3 9
5.0600381 -5.1026073 0.37660959 6 9
5.0836043 -5.0753131 0.37647 7.6666665 9
5.1238203 -5.0228758 0.37603387 7 9
5.2031198 -5.0316153 0.37933105 1 9
5.2496819 -5.006197 0.38016844 1 9
5.2929502 -4.9808512 0.38090113 1 9
5.3150425 -4.9494057 0.380622 1 9
5.3796592 -4.9226446 0.38215721 1 9
5.3810039 -4.9152541 0.38194785 1 9
5.4219608 -4.8879509 0.38257587 3 9
5.4500041 -4.8506589 0.38236654 9 9
5.4661794 -4.856514 0.38320392 10 9
5.4257603 -4.7574339 0.37817967 20 9
5.3533812 -4.6307068 0.37095729 21 9
5.3460326 -4.6178288 0.3702246 16 9
5.2776852 -4.5012002 0.36352557 19 9
5.2625799 -4.4819746 0.36226952 21 9
2.4576316 -3.8156924 0.39708155 97 10
2.4946673 -3.7963257 0.39743018 99 10
2.5222433 -3.7948444 0.39865038 100 10
2.5608776 -3.770654 0.39878109 100 10
2.6150947 -3.7375114 0.39908612 100 10
2.6652565 -3.722791 0.40056777 100 10
2.6774969 -3.707412 0.40010297 100 10
2.7280402 -3.6769977 0.40056777 100 10
2.7839568 -3.645505 0.4013086 99.5 10
2.8445597 -3.6193447 0.40274668 100 10
2.9056313 -3.5779076 0.40325221 100 10
2.9710782 -3.5608981 0.40573898 96 10
2.9698114 -3.4938352 0.40117788 92 10
2.9829834 -3.4453182 0.39870849 47.333332 10
2.9896891 -3.4175007 0.39725587 54 10
3.0301363 -3.3943489 0.39808384 71 10
-1.5317947 -3.0319965 0.41709787 27.5 11
-1.4795859 -3.0042682 0.4111872 27 11
-1.4600625 -2.9928188 0.40887171 26 11
-1.415274 -2.9626405 0.40314379 28.333334 11
-1.374691 -2.9466939 0.39924401 30 11
-1.3404474 -2.9264395 0.39522231 30.5 11
-1.2961053 -2.8996422 0.3899819 31.666666 11
-1.269201 -2.8790243 0.38632584 31 11
-1.2282747 -2.8643303 0.38266978 30.75 11
-1.1749969 -2.8379586 0.37714502 35.333332 11
-1.1505748 -2.8193979 0.37389517 35 11
-1.1070244 -2.7930324 0.36889851 36.25 11
-1.0576115 -2.770016 0.36406437 32.666668 11
-1.0371805 -2.7593744 0.36195198 30 11
-0.67060935 -2.5616684 0.41940087 35 12
-0.62744802 -2.5386376 0.41418639 35.5 12
-0.56209397 -2.4958885 0.40521744 35.333332 12
-0.51262701 -2.4774687 0.40070695 36.5 12
3.9168656 -2.4991646 0.40649435 19 10
-0.48303446 -2.4597743 0.39703071 36 12
-0.44855446 -2.4435697 0.39349979 35.42857 12
-0.3959794 -2.4172335 0.38795751 38.5 12
-0.36668563 -2.3948903 0.38373381 38.5 12
-0.32990637 -2.3736055 0.37956223 39.166668 12
-0.29336506 -2.3502378 0.37512988 39 12
-0.25738657 -2.3265896 0.37074971 38.666668 12
-0.20666234 -2.3065228 0.36678672 39.333332 12
-0.16482717 -2.2854872 0.362928 39 12
-0.14073825 -2.2782047 0.36152011 42 12
3.5762126 -2.277421 0.37093481 14 10
0.044850022 -2.1591141 0.41977981 39 13
0.090274304 -2.141897 0.41672689 39.5 13
0.15597752 -2.13889 0.4168795 31.6 13
0.20385094 -2.1376379 0.4174138 31.799999 13
0.33159789 -2.1237259 0.41782936 42.555557 13
0.37050802 -2.1066318 0.41577283 38.5 13
0.39724243 -2.0877321 0.41310152 40 13
0.44885376 -2.0630198 0.41040897 43.888889 13
0.49362215 -2.0472176 0.40934893 44.666668 13
0.51639241 -2.0250244 0.40623236 48.5 13
0.56217873 -2.0036232 0.40451509 48 13
0.59007311 -1.9751486 0.4006989 50 13
0.63375688 -1.9563173 0.39974487 53.799999 13
0.68256313 -1.9317852 0.39825657 59.400002 13
0.70695102 -1.9070938 0.39535624 58 13
0.7519471 -1.8865442 0.39478379 55.799999 13
0.79001939 -1.865694 0.39382979 59 13
0.81582689 -1.8496062 0.39295751 58.42857 13
0.84841609 -1.8218104 0.39064965 63.333332 13
-1.2048175 -1.7471347 0.41252908 42 13
-1.1809603 -1.7762511 0.41462797 38.75 13
0.86340946 -1.7823449 0.38498899 43.833332 13
-1.2218044 -1.7060235 0.40790194 43.125 13
-1.1971115 -1.7333696 0.40947613 42 13
0.89439517 -1.7028975 0.37389025 44 13
0.92220646 -1.6840349 0.37322241 54 13
3.7566626 -1.7259768 0.36169633 66 10
-1.2628216 -1.626847 0.40031728 48 13
-1.2455438 -1.65238 0.40222538 45.333332 13
0.93366897 -1.6703606 0.37198216 52.25 13
0.99232036 -1.6510514 0.37445205 49.444443 13
-1.2753795 -1.5911542 0.39639211 47.42857 13
-1.255672 -1.6199698 0.39840919 48 13
1.0089755 -1.6197264 0.3709327 26 13
-1.2996955 -1.5339234 0.39081919 47.555557 13
-1.3402334 -1.4686096 0.38648367 50.125 13
-1.318186 -1.4957154 0.3875331 49 13
-1.3817743 -1.3900303 0.38098201 49 13
-1.3640219 -1.4177969 0.38243577 49.285713 13
-1.4031307 -1.3514469 0.37869227 49.777779 13
2.9570096 -1.3283169 0.3980253 20.5 11
-1.4479281 -1.2788266 0.37551212 49 13
-1.4259033 -1.3091612 0.37627536 50.400002 13
2.916261 -1.2856159 0.39132249 32.5 11
-1.473597 -1.230159 0.37314609 50.799999 13
2.8786163 -1.2201217 0.38388845 30 11
2.898447 -1.2460998 0.38738203 31.666666 11
-1.5121464 -1.1675496 0.37136203 52.75 13
-1.4914391 -1.1935875 0.37131432 53 13
2.8576403 -1.1776034 0.37950116 33.75 11
-1.5419668 -1.1153817 0.36994052 53.400002 13
2.8163197 -1.1048379 0.37145779 37 11
2.8288565 -1.1234899 0.37373269 34.666668 11
-1.5774472 -1.0515534 0.36852854 55.599998 13
-1.5559713 -1.0774053 0.36787975 57 13
2.789578 -1.0537459 0.36614427 35.400002 11
-1.7028958 -0.96774179 0.38072756 70.666664 13
-1.6505405 -0.98987621 0.37411284 14.666667 13
-1.6049657 -1.0028776 0.36787975 48.555557 13
2.7650399 -1.016241 0.36170825 32 11
-1.6946152 -0.94979358 0.37761104 48.5 13
2.5575514 -0.61813092 0.41674146 36.333332 12
2.5122612 -0.55536121 0.40751183 36.5 12
2.5362029 -0.58832812 0.41236129 37 12
-1.3629296 -0.49163076 0.3882286 20 15
2.4892232 -0.50515759 0.40229735 37.166668 12
-1.3080335 -0.46152973 0.37166417 36 15
2.4720738 -0.44781908 0.39791718 45.833332 12
2.4852831 -0.39195132 0.39850569 39.857143 12
2.508049 -0.3296369 0.40065998 45.200001 12
2.5205021 -0.33227792 0.40266237 54 12
2.4935338 -0.27532339 0.39734361 38 12
2.4487851 -0.1928401 0.38905257 44.75 12
2.4719238 -0.22933681 0.39319807 41.75 12
-1.7277263 -0.12746929 0.39996299 63.333332 14
2.4228156 -0.14862595 0.38446379 46.166668 12
-1.7622681 -0.084753595 0.40734139 56.799999 14
-1.7303625 -0.11796445 0.40041289 61 14
2.3840573 -0.088229284 0.37786746 52.5 12
-1.7923191 -0.042801194 0.41390994 35 14
2.338805 -0.01387891 0.37043685 48 12
2.3468809 -0.032708175 0.37175089 46.400002 12
-1.5656996 0.056864403 0.41980451 30 15
-1.5251379 0.031146517 0.40876156 24.666666 15
2.3178775 0.02701785 0.36715171 46.75 12
-1.5532169 0.077324644 0.41669869 19 15
2.2748315 0.11245223 0.36073789 50 12
2.2902501 0.08234743 0.36298013 44.666668 12
2.0918572 0.28951797 0.41049376 25.666666 13
2.1302054 0.27427325 0.41749012 61 13
-1.7041985 0.33229175 0.40086278 1 14
-1.5975068 0.33882946 0.37701797 2 14
-1.5401076 0.3369242 0.36397079 7 14
2.0263078 0.33638358 0.39928147 48.285713 13
2.048795 0.31277797 0.40286145 47 13
-1.6615639 0.36531836 0.39276454 5 14
1.9733088 0.41871876 0.39211252 55 13
1.9982765 0.38795549 0.39569014 52.25 13
-1.9917008 0.42189577 0.39573789 4 13
1.9601873 0.45161441 0.39101538 55.25 13
-2.2261603 0.49666408 0.36125937 35.666668 12
1.9101684 0.53206855 0.38543421 54 13
1.9302404 0.50164378 0.38767621 54.25 13
-2.0598266 0.58718419 0.41634524 34.75 13
-2.0325813 0.59667969 0.41176581 34 13
1.8948095 0.57061297 0.38467097 54.799999 13
-2.0112832 0.61965585 0.40909454 34.833332 13
-1.9517412 0.64583975 0.39961767 35.5 13
1.8517714 0.65064323 0.38152263 54.5 13
1.8670095 0.61963677 0.38238123 56 13
-1.9241652 0.66517347 0.39573789 36 13
-1.8910824 0.68040437 0.39066786 35.857143 13
-1.8406632 0.70725524 0.38329715 38.599998 13
1.8266913 0.69191891 0.3797099 54.599998 13
-1.8191601 0.72241664 0.38047314 47.5 13
-1.7705595 0.74316621 0.37326479 43.111111 13
-1.638203 0.73693752 0.41471976 71.199997 14
-1.6160282 0.74431497 0.41076064 68 14
-1.5336461 0.74465686 0.39361936 97.300003 14
-1.4847262 0.76972067 0.38610598 100 14
1.8159071 0.74614 0.38161802 51.333332 13
-1.4581761 0.80105901 0.38411638 93.555557 14
-1.4777212 0.86305118 0.39508903 61 14
-1.5182046 0.93697757 0.41188538 49.75 14
-1.4954178 0.90138173 0.40311229 56.5 14
-1.5660453 1.0183625 0.36310953 29 13
-1.5376809 0.97020435 0.41975865 43 14
-1.5875969 1.0561345 0.37064651 28 13
-1.6245471 1.1232123 0.38390771 30 13
-1.6051143 1.0971704 0.37792906 25 13
-1.6476463 1.1688918 0.39268494 25.799999 13
-1.6867582 1.2410558 0.40705919 24 13
-1.6753365 1.2078459 0.40146214 28 13
-1.7108788 1.2842997 0.41583642 21.333334 13
0.35575476 1.3116691 0.36415839 68 15
0.36148652 1.2990756 0.36131141 70 15
0.33665845 1.3435435 0.37114653 65.333336 15
-1.7921988 1.4294171 0.36308444 21 12
0.29432109 1.4344604 0.39236969 62 15
0.31184739 1.4064149 0.38601014 62.42857 15
-1.8180803 1.4775752 0.37106261 20.666666 12
0.2699576 1.4719831 0.40101424 56.599998 15
-1.8454677 1.5293137 0.37961435 22.666666 12
0.23121615 1.5417782 0.39835027 63.5 15
0.2445958 1.5093704 0.40971059 56.5 15
-1.8822849 1.5889695 0.3901476 20.5 12
0.20573579 1.5897769 0.37010071 73 14
-1.9262891 1.67273 0.40407026 21 12
-1.9064095 1.6322613 0.39750004 18.5 12
0.16260159 1.6634139 0.38586602 66.333336 14
0.18268858 1.6325982 0.37926748 69 14
-1.9474776 1.7145194 0.4109534 20 12
0.1375598 1.7103323 0.39613882 62 14
-1.978381 1.7645323 0.41987014 17 12
0.10215046 1.7781937 0.41121054 50.200001 14
0.12256356 1.750555 0.40513685 56 14
0.075386286 1.8331848 0.3897098 38 14
0.038876079 1.9000015 0.36940622 26.166666 13
-0.0013746154 1.9691436 0.38276285 26 13
0.008603639 1.9540647 0.37983716 26.333334 13
-2.1227822 2.029639 0.36061141 14.5 11
-0.02166651 2.013679 0.39144468 26.25 13
-2.1629207 2.095284 0.36975163 18 11
-2.1550281 2.0920169 0.36877668 17 11
-0.072377026 2.0935416 0.40718642 22 13
-0.050813243 2.0588145 0.40031728 24 13
-2.1818125 2.1455569 0.37572321 17.5 11
-0.090287827 2.1296642 0.41434178 20 13
-2.215271 2.2090993 0.38413221 14 11
-2.2558258 2.2779818 0.39363801 13 11
-2.2628067 2.2906213 0.3953442 12 11
-0.19560167 2.3147936 0.3679339 22 12
-0.17742132 2.2875299 0.3633973 20 12
-2.2987535 2.356864 0.40424067 10.5 11
-0.22224177 2.3725653 0.37742424 21 12
-2.3474972 2.4436748 0.416062 11 11
-2.3394654 2.4293661 0.41411206 11 11
-0.25731033 2.437901 0.38827038 19.5 12
-0.2378467 2.4041493 0.38263875 20 12
-0.30133742 2.5084722 0.40015942 18 12
-0.285097 2.4838488 0.39598784 17.333334 12
-0.32324851 2.5515459 0.40735537 17 12
-0.34684384 2.594291 0.41455138 14.5 12
-1.4080689 6.8022599 0.36404896 10 9
-1.4883738 6.945569 0.3722657 9 9
-3.6081698 7.1367726 0.41910636 61 9
-1.6253126 7.0993319 0.38168615 56.5 9
-1.5754998 7.10953 0.38163385 17.5 9
-3.5707376 7.171196 0.41983908 87 9
-1.6848103 7.1439447 0.3846693 39 9
-1.759513 7.2205105 0.38948423 10 9
-3.0283542 7.4003325 0.41905403 73 9
-2.9928794 7.3964801 0.41816431 40 9
-2.9179447 7.3962688 0.41669893 54.666668 9
-2.8486643 7.4275069 0.41690826 56.333332 9
-1.8633671 7.4129019 0.40057945 10 9
-1.8510789 7.3912754 0.3993234 12 9
-2.7863102 7.4682178 0.41774565 57 9
-2.7421443 7.4973092 0.41837367 55 9
-2.7383389 7.5072045 0.4187924 55 9
-2.6744764 7.5343919 0.4190017 54.666668 9
-2.6358879 7.548018 0.41900173 54 9
-1.9495111 7.5599685 0.40916255 10 9
-2.5903053 7.5764475 0.41962975 53 9
-1.9661155 7.5969353 0.41125599 10 9
-1.6346129 -3.0832684 0.42849264 36.333332 11
-1.5868171 -3.0612812 0.42337415 28.5 11
-1.7481308 -3.006609 0.42703021 44 11
-1.7121445 -3.0408583 0.42849267 44 11
-1.6497222 -3.0451424 0.42524278 50.333332 11
4.2554073 -3.0129993 0.45617315 19.5 10
-1.7679315 -2.9690228 0.42428815 45.5 11
-1.781534 -2.9243562 0.42044926 11 11
4.2060747 -2.9341998 0.44867778 14 10
4.1730924 -2.8680875 0.44301262 16.5 10
-1.1109096 -2.8071938 0.47816804 33 12
-1.055958 -2.7716725 0.46977276 33.5 12
4.1222215 -2.7888553 0.43543008 17 10
4.1412258 -2.8069842 0.43769613 21 10
-0.98849487 -2.7376785 0.46101239 33 12
-0.93802595 -2.7157507 0.45506793 31.5 12
4.1039186 -2.7374949 0.43159521 35.5 10
-0.90885395 -2.6912723 0.44990557 34 12
-0.87298751 -2.6771412 0.4459947 34 12
-0.82763666 -2.6511855 0.43989375 34 12
4.0625186 -2.6701016 0.42532 22 10
-0.79310703 -2.6273468 0.43467927 34.666668 12
-0.7499615 -2.603343 0.42909974 34 12
-0.71052426 -2.5894709 0.42529321 33.666668 12
4.0325575 -2.6102762 0.42026496 20.5 10
-0.69142956 -2.5714726 0.42174736 33 12
-0.42437488 -2.4290552 0.47931221 35 13
-0.38771313 -2.4088833 0.47427487 36 13
-0.35366303 -2.4066248 0.47282472 37 13
-4.2876973 -2.3552301 0.42799282 100 10
-0.38482344 -2.3998508 0.4724431 36 13
-0.32765454 -2.373018 0.46565026 36 13
-0.28154665 -2.3492725 0.45992604 36.200001 13
-4.3096185 -2.3091919 0.42776036 100 10
-0.24769209 -2.3290172 0.45527029 36 13
-0.20807199 -2.3075683 0.45037284 36 13
-0.16675447 -2.2924097 0.44677931 36.75 13
-4.3400044 -2.2486789 0.42764416 100 10
-0.13317645 -2.2646139 0.4409596 38 13
-0.08841157 -2.2410781 0.43597132 37.57143 13
-4.3844352 -2.1758192 0.42822519 100 10
-4.367826 -2.2060268 0.42810902 100 10
-0.029822864 -2.201021 0.4278892 37.625 13
0.02358065 -2.1711826 0.42206952 38 13
0.060140293 -2.1665986 0.42130631 38 13
0.14229596 -2.1784866 0.42435923 48.333332 13
0.26105127 -2.1687341 0.42461362 51.5 13
-4.4039383 -2.126091 0.42784753 100 10
0.28601003 -2.1484439 0.42130628 45.666668 13
-4.4501662 -2.0539086 0.42880625 100 10
-4.4357185 -2.0849271 0.42880625 100 10
-4.4595051 -2.021517 0.42837048 94.5 10
0.50524223 -2.0129166 0.47914577 55.400002 14
0.55292654 -1.9898173 0.47680625 54.200001 14
0.57842457 -1.9756765 0.47527662 53.599998 14
0.62924027 -1.9460996 0.47221726 55.299999 14
0.66823387 -1.9319249 0.47194731 61 14
0.69425964 -1.9078965 0.46874797 58.555557 14
0.74690157 -1.8771607 0.466436 56.75 14
0.78065693 -1.8671386 0.46722335 55 14
-1.1707186 -1.842676 0.4243592 41 13
0.80755115 -1.8409775 0.46413028 56.875 14
0.8409549 -1.83005 0.46497381 61 14
0.83375365 -1.7599274 0.44960216 55.666668 14
0.86622459 -1.7657226 0.4541012 23 14
-1.2157539 -1.6844451 0.47959566 56 14
0.83589137 -1.7214503 0.44180387 45 14
0.87333912 -1.7014602 0.44157892 55 14
-1.2339109 -1.6532873 0.47629637 53.333332 14
0.89163774 -1.6733874 0.43775475 67 14
0.93050402 -1.6604824 0.43946439 70.400002 14
0.97246534 -1.6349895 0.43919444 58.200001 14
-1.2782689 -1.5768772 0.46864805 52.5 14
-1.2548547 -1.6038549 0.47014773 52.75 14
0.99125314 -1.6110358 0.43670499 41 14
-1.3248093 -1.5027013 0.46249935 56 14
-1.3011411 -1.5273232 0.46323046 52.25 14
-1.3389884 -1.4610636 0.45755047 52.57143 14
-1.318379 -1.4823498 0.45800036 53 14
-1.3837209 -1.3832374 0.4517017 55 14
-1.3626171 -1.4107301 0.45282644 54.5 14
-1.4019752 -1.3444042 0.4484624 57.799999 14
-1.4473938 -1.2647182 0.44375345 61 14
-1.426792 -1.2893809 0.44398913 58.714287 14
-1.4663532 -1.222773 0.44081411 68 14
-1.5091714 -1.1470826 0.43764228 69.25 14
-1.4911793 -1.1748114 0.43827963 72.166664 14
-1.5314171 -1.1062925 0.43618006 71.699997 14
2.8112321 -1.0825099 0.4771252 36 12
-1.5707365 -1.0346835 0.43424553 74.199997 14
-1.5534855 -1.0610994 0.43433547 77.800003 14
2.7865858 -1.0449356 0.4713684 36.799999 12
-1.6529815 -0.9834137 0.44405335 10.75 14
-1.5943211 -0.99549633 0.43395099 67.545456 14
2.7512984 -0.97104609 0.46210748 36 12
2.7714815 -0.9997108 0.46664408 35.5 12
-1.6976467 -0.94489819 0.4485524 36 14
-1.660257 -0.94769108 0.44135398 56.142857 14
2.7233896 -0.92941093 0.45577186 33.5 12
2.683188 -0.84446156 0.44552541 36 12
2.7064447 -0.88188672 0.4508442 34.75 12
2.6397007 -0.79094386 0.43645221 36 12
2.6605945 -0.81553018 0.44075415 36.5 12
2.6268518 -0.75032359 0.43269777 35.200001 12
2.5960288 -0.69429332 0.42562693 35.200001 12
2.5754662 -0.63640946 0.42018303 36 12
2.5817187 -0.65615231 0.42190379 36 12
2.4448988 -0.193959 0.47673631 36.75 13
-1.7720808 -0.15940104 0.47674471 50 15
-1.7257259 -0.14712068 0.46409956 45.857143 15
