# .PCD v0.7 - Point Cloud Data file format
VERSION 0.7
FIELDS x y z
SIZE 4 4 4
TYPE F F F
COUNT 1 1 1
WIDTH 484
HEIGHT 1
VIEWPOINT 0 0 0 1 0 0 0
POINTS 484
DATA ascii
2.4750547 -0.23832066 -0.21754073
2.4707046 -0.22050449 -0.21701778
2.4582841 -0.20210776 -0.21579762
2.4457276 -0.18389519 -0.21457744
2.4555321 -0.18635644 -0.21544899
2.4319708 -0.16686168 -0.2132701
2.4220738 -0.15026206 -0.21231139
2.4151525 -0.13206691 -0.21161413
2.4040349 -0.11547408 -0.21056828
2.4200363 -0.11454934 -0.21196276
2.3988783 -0.09676826 -0.21004534
2.4047651 -0.099107772 -0.21056828
3.4956846 -1.9122459 -0.20882049
3.4868336 -1.9034524 -0.20819245
2.393451 -0.081908204 -0.2095224
2.3855567 -0.07955388 -0.20882516
2.3585057 -0.047756404 -0.20638479
2.3625228 -0.04618774 -0.20673342
2.3508127 -0.031184191 -0.20568755
2.358803 -0.029643152 -0.20638479
2.3430135 -0.013085992 -0.2049903
2.3509731 -0.014771794 -0.20568755
2.3350792 0.0022410427 -0.20429306
2.3250451 0.018464258 -0.2034215
2.3109057 0.035092015 -0.20220132
2.3026714 0.04944022 -0.20150407
2.3066204 0.051137101 -0.20185271
2.2982409 0.067006834 -0.20115545
2.3022816 0.065112896 -0.20150407
2.2857707 0.082617059 -0.20010957
2.2938063 0.080904454 -0.20080683
2.2752447 0.096753307 -0.19923803
2.2724748 0.11352845 -0.19906372
2.2598033 0.12673886 -0.19801784
2.26367 0.12893733 -0.19836646
2.2548242 0.14324333 -0.19766922
2.24575 0.15940119 -0.19697197
2.2286918 0.17383723 -0.19557749
2.2367887 0.1725041 -0.19627473
2.2235518 0.18788934 -0.19522884
2.2182884 0.20227166 -0.19488023
2.2221148 0.20418371 -0.19522884
2.2127807 0.21813506 -0.19453162
2.2032785 0.2327407 -0.19383438
2.1878698 0.2454084 -0.19261418
2.5305438 -0.33405107 -0.13377072
2.4724932 -0.22370927 -0.13010719
2.4646919 -0.22126873 -0.12968852
2.432919 -0.16713962 -0.12780441
2.4259212 -0.15177587 -0.12738572
2.4340003 -0.15057552 -0.12780441
2.4150498 -0.13248545 -0.1267577
2.4229331 -0.1346146 -0.12717639
2.4039457 -0.11504927 -0.12612967
2.4118242 -0.11753593 -0.12654836
2.3887255 -0.097611517 -0.12529229
2.3926306 -0.099862605 -0.12550163
2.3813503 -0.081077993 -0.12487361
2.3678372 -0.065726101 -0.1241409
2.3818583 -0.064451188 -0.12487361
2.3642576 -0.04849261 -0.12393156
2.3525586 -0.031618718 -0.12330352
2.3447278 -0.015960302 -0.12288483
2.3268065 0.0010164252 -0.12194279
2.3287354 0.017883379 -0.12204745
2.3085833 0.033847779 -0.12100074
2.3205888 0.032404598 -0.12162878
2.3043184 0.048872627 -0.1207914
2.2939672 0.063675761 -0.12026804
2.2879212 0.065507084 -0.11995402
2.2794943 0.079204723 -0.11953534
2.2834306 0.080936395 -0.11974468
2.2769067 0.094634905 -0.11943066
2.2808144 0.096792176 -0.11964
2.272162 0.11112651 -0.11922131
2.2573278 0.12699522 -0.11848862
2.2614043 0.12564096 -0.11869796
2.2483883 0.14263922 -0.11806992
2.2524984 0.14092661 -0.11827926
2.2374444 0.15665475 -0.11754657
2.2303972 0.17083652 -0.11723255
2.2360506 0.18776751 -0.11759891
2.2258053 0.201781 -0.11712788
2.2064521 0.21556729 -0.11618583
2.1890423 0.22891933 -0.11534845
2.1834211 0.24375191 -0.11513911
2.195116 0.24699812 -0.11576715
2.1816661 0.25899017 -0.11513911
2.2773778 0.10182197 0.039791487
2.2812834 0.1039924 0.039861299
2.2766116 0.11771967 0.039791487
2.2636397 0.13488157 0.039582059
2.2466502 0.16439147 0.039320268
2.2305763 0.17790021 0.039058488
2.2384243 0.18009986 0.039198104
2.2252955 0.19312353 0.03898868
2.196739 0.23864217 0.038569819
2.1911569 0.2525568 0.038500007
2.528605 -0.32661352 0.044503637
2.5178943 -0.30759695 0.044276755
2.5148878 -0.29053763 0.044189494
2.5051565 -0.28764129 0.044014968
2.4949863 -0.27060169 0.043805543
2.478909 -0.25136131 0.043491397
2.4667485 -0.23187402 0.043247059
2.4643977 -0.21343999 0.043177254
2.455792 -0.19629562 0.043002732
2.4372206 -0.17684008 0.04265368
2.4450428 -0.17955272 0.0427933
2.4302742 -0.16141866 0.042514063
2.4264235 -0.15903622 0.042444255
2.4173689 -0.14361817 0.042269729
2.4214609 -0.14216489 0.042339537
2.4063308 -0.12611046 0.042060301
2.4144065 -0.12484354 0.042199921
2.395242 -0.10709171 0.041850869
2.4111285 -0.10991039 0.042130109
2.3878984 -0.091107741 0.041711252
2.3824735 -0.074456722 0.041606538
2.3649435 -0.057383571 0.041292395
2.365283 -0.041078649 0.041292395
2.3545165 -0.024247402 0.041100416
2.3436301 -0.0077724983 0.040908441
2.3256288 0.0089299819 0.040594298
2.3376312 0.0077521456 0.040803727
2.3235188 0.02433376 0.040559392
2.3153088 0.039605949 0.040419776
2.3049898 0.055124711 0.040245246
2.3025186 0.072158292 0.040210344
2.2899466 0.088371962 0.040000916
2.292006 0.086849079 0.040035821
2.2858074 0.069439277 0.11984935
2.281275 0.085246362 0.11964
2.272572 0.10240301 0.11922132
2.2846327 0.10094781 0.11984935
2.2678332 0.11766152 0.11901198
2.271904 0.11628362 0.11922132
2.253046 0.13188216 0.11827928
2.2460785 0.14741299 0.11796526
2.2430024 0.16294613 0.11786059
2.2358532 0.17792824 0.11754657
2.2206278 0.19232744 0.11681387
2.2142596 0.20735906 0.11655219
2.2028222 0.22181264 0.11602883
2.1884356 0.23464909 0.11534845
2.1925879 0.25155771 0.11566248
2.4622025 -0.21541518 0.1295315
2.4447339 -0.19669932 0.12853712
2.4401343 -0.17833591 0.12822311
2.4292214 -0.16262631 0.12759508
2.4373341 -0.16103302 0.12801376
2.424367 -0.14445925 0.12728105
2.4074099 -0.1257457 0.126339
2.4113107 -0.12763751 0.12654836
2.4041431 -0.11085341 0.12612967
2.3922675 -0.10821383 0.12550163
2.38099 -0.091052234 0.12487361
2.3775356 -0.075547807 0.12466426
2.372015 -0.05879999 0.12435023
2.3583968 -0.041577715 0.12361754
2.3623683 -0.042885061 0.12382689
2.3386621 -0.024491305 0.12257081
2.3466332 -0.026213234 0.12298951
2.3327813 -0.0089565841 0.1222568
2.3228035 0.0064868177 0.12173345
2.3307886 0.007729454 0.12215213
2.3186948 0.023877839 0.1215241
2.3266997 0.022335866 0.1219428
2.3105114 0.038313828 0.12110542
2.2941995 0.054665156 0.12026804
2.2897384 0.071558647 0.1200587
2.2891984 0.08714278 0.1200587
2.5254674 -0.32665637 0.13345671
2.5311804 -0.32919216 0.13377072
2.5155218 -0.3097586 0.13282867
2.5017514 -0.29034752 0.1319913
2.4696681 -0.23258261 0.13000253
2.4754701 -0.23487267 0.13031654
-2.3521662 7.722496 0.14091073
-2.3471658 7.7302866 0.14101544
2.2810352 0.10118773 0.19976096
2.2684155 0.11491322 0.19871511
2.2743037 0.1168033 0.19923802
2.2635796 0.13051754 0.19836646
2.2465754 0.161825 0.19705912
2.2374463 0.17687654 0.19636188
2.2251725 0.19232924 0.19540317
2.2140005 0.20538761 0.19453162
2.2104721 0.22121948 0.19435729
2.1968851 0.23633072 0.19331144
3.4971695 -1.9011796 0.20861115
3.4882936 -1.8924127 0.20798311
2.3922524 -0.11156042 0.2095224
2.3943391 -0.10956383 0.20969671
2.3950293 -0.093263656 0.20969671
2.3757083 -0.075904809 0.2079536
2.3836203 -0.077823415 0.20865084
2.3681715 -0.060771946 0.20725635
2.3602359 -0.059331693 0.20655911
2.3536091 -0.043342687 0.20594901
2.3468745 -0.027444908 0.20533893
2.3608389 -0.025959827 0.20655911
2.3490083 -0.0094295731 0.20551322
2.3360696 0.0057075624 0.20438021
2.3230228 0.021895111 0.20324717
2.3138521 0.037762903 0.20246279
2.3065841 0.052746214 0.20185271
2.2850862 0.099769145 0.20010957
2.4995461 -0.2728619 0.21998109
2.4855335 -0.25378621 0.21858659
2.4793108 -0.2356737 0.21788934
2.4570792 -0.21626368 0.21579763
2.4504812 -0.19974402 0.21510038
2.4625702 -0.1985663 0.21614623
2.4498291 -0.18248367 0.21492605
2.4380658 -0.17946817 0.2138802
2.4273028 -0.1620723 0.21283433
2.4411042 -0.16470574 0.2140545
2.4104755 -0.14405304 0.2112655
2.4203181 -0.14633705 0.21213706
2.4014742 -0.12669651 0.21039395
2.3989453 -0.095093511 0.21004534
2.5327392 -0.33074358 0.22346732
2.5309935 -0.32871863 0.22329301
2.51142 -0.30880857 0.22137558
2.5163815 -0.2924895 0.22163704
2.1796424 0.24641271 0.26933128
2.2754152 0.082242772 0.27956831
2.272819 0.097645029 0.27932456
2.2720022 0.11509493 0.27932456
2.2593434 0.12869088 0.27786213
2.2552664 0.13043313 0.27737463
2.2384534 0.14514709 0.27542472
2.2504654 0.14395405 0.27688718
2.231585 0.15839578 0.27469352
2.2334256 0.16048636 0.27493724
2.2244873 0.17350927 0.27396232
2.2271776 0.18937124 0.2744498
2.2211115 0.19041623 0.27371857
2.2019384 0.20426863 0.27152494
2.2139409 0.20382228 0.27298734
2.1984835 0.21943788 0.27128118
2.2025869 0.21829464 0.27176866
2.1930518 0.23340297 0.27079371
2.3499198 -0.04491562 0.28858662
2.344224 -0.02823301 0.28785539
2.3324537 -0.011805709 0.28639299
2.3185067 0.019424565 0.28468683
2.3204772 0.021061098 0.28493056
2.314332 0.036356594 0.28419933
2.3021188 0.05204137 0.2827369
2.2857959 0.068639271 0.28078699
2.2918079 0.06681928 0.28151822
2.2852757 0.084197722 0.28078699
2.2826493 0.10006188 0.28054324
2.4043934 -0.13021728 0.29565504
2.4005194 -0.12832674 0.2951676
2.3614824 -0.060600292 0.29004908
2.5039015 -0.29369777 0.30954817
2.4661138 -0.23615588 0.30418593
2.4568272 -0.21796903 0.30284536
2.4433804 -0.20045312 0.30101728
2.5157154 -0.31178841 0.31125432
3.4981489 -1.9040858 0.34844866
2.1856806 0.24690175 0.34837961
2.2629154 0.1134468 0.3588607
2.2581687 0.1282286 0.35823497
2.2454402 0.1424522 0.35635775
2.2271357 0.1889753 0.35401124
2.2089708 0.20375459 0.35135183
2.2110798 0.20239149 0.35166472
2.2056816 0.21743524 0.35103899
2.3339057 0.0030542263 0.36965472
2.3190074 0.019833507 0.36730817
2.3269222 0.018276691 0.36855966
2.3030114 0.035777278 0.36480519
2.3188372 0.034402896 0.36730817
2.3027499 0.049845066 0.36480519
2.3046806 0.05189893 0.36511809
2.2944477 0.065693945 0.36355373
2.3022873 0.067928009 0.36480519
2.2859795 0.08302518 0.36230227
2.291959 0.081639193 0.36324087
2.2834129 0.097899139 0.36198938
2.2748315 0.11245223 0.36073789
2.3934422 -0.11349987 0.37951005
2.3862391 -0.097509906 0.37825859
2.3868618 -0.080848567 0.37825859
2.3790205 -0.078920245 0.3770071
2.3637159 -0.061896075 0.37450415
2.3715708 -0.063758604 0.37575564
2.3522201 -0.046192188 0.37262693
2.3426018 -0.030257404 0.37106261
2.3426223 -0.028621955 0.37106261
2.338805 -0.01387891 0.37043685
2.3447402 -0.012277142 0.37137547
5.3275933 -4.9437785 0.38090113
5.3289752 -4.9364128 0.38069177
2.4490352 -0.20220801 0.389209
2.4531133 -0.20082055 0.38983473
2.4424758 -0.18493685 0.38795751
2.4505157 -0.183395 0.389209
2.4359696 -0.1652135 0.38670605
2.4437075 -0.16788077 0.38795751
2.4173207 -0.14742619 0.38357735
2.4290471 -0.14984351 0.3854546
2.4103093 -0.13180345 0.38232586
2.4005382 -0.12958831 0.3807615
2.3981659 -0.095901072 0.38013577
2.4965234 -0.27561769 0.3978129
2.4865971 -0.25696516 0.39593568
2.4775157 -0.23855834 0.3942149
2.4692063 -0.22123961 0.39265057
2.4634573 -0.21899098 0.39171195
2.5148649 -0.31413451 0.40141091
2.1945486 0.23123677 0.42893863
2.1870282 0.24589479 0.4277938
2.1734483 0.2607066 0.42550406
-2.3446772 7.7124062 0.42245588
2.249269 0.14308923 0.43809745
2.2325485 0.15768208 0.43504456
2.2463675 0.1570811 0.43771586
2.2295561 0.17155492 0.43466291
2.2333508 0.17341527 0.43542615
2.2204788 0.18645993 0.43313646
2.2131162 0.20296843 0.43199161
2.2068558 0.21696725 0.43103755
2.3144457 0.032721717 0.44992763
2.3043032 0.050683379 0.44801953
2.2999802 0.066252977 0.4472563
2.2877178 0.08108823 0.44496661
2.2714546 0.095201433 0.44191366
2.2726953 0.11115383 0.44229528
2.3495502 -0.046754591 0.45679674
2.3554142 -0.048105072 0.45794162
2.3411369 -0.014301713 0.4550795
2.324492 0.0024336497 0.45183572
2.3362725 0.00081616937 0.45412543
2.3224614 0.017836308 0.45145413
2.3203053 0.03483082 0.45107248
2.4013066 -0.13299267 0.46748206
2.3885498 -0.11347679 0.46481073
2.4002156 -0.11613041 0.46710047
2.3813522 -0.098559186 0.46328428
2.3820388 -0.080268994 0.46328428
2.3917928 -0.0822694 0.46519238
2.3736815 -0.064436466 0.46156698
2.4554753 -0.20338528 0.47893059
2.4343224 -0.18453273 0.47454199
3.4927263 -1.904296 0.4884524
3.4874117 -1.8974524 0.48747739
2.4996521 -0.29408395 0.4892343
2.4899361 -0.27533138 0.48694456
2.4916947 -0.27728677 0.4873262
2.478128 -0.25652677 0.48427325
2.4838064 -0.25886726 0.48541811
2.4679663 -0.23981197 0.48198354
2.4739957 -0.23865449 0.4831284
2.4617593 -0.22187175 0.48045707
2.4736464 -0.22120221 0.48274681
2.5243239 -0.33412659 0.49495855
2.5342889 -0.33364546 0.49686664
2.5149617 -0.31459308 0.49266887
2.5052953 -0.29652125 0.49037915
2.1958275 0.23079118 0.5097391
2.1864164 0.24524538 0.50793946
2.1752014 0.25745177 0.50568998
2.2472637 0.12603559 0.51963693
2.2406168 0.13939705 0.51828724
2.242439 0.14147595 0.51873708
2.2318125 0.15449885 0.5164876
2.2413967 0.15712769 0.51873708
2.2285876 0.17187162 0.5160377
2.2157145 0.18605983 0.51333827
2.2216699 0.1849971 0.51468801
2.2065988 0.20081639 0.51153868
2.2164426 0.20015226 0.51378822
2.1994748 0.21411057 0.510189
2.2012641 0.21583612 0.51063889
2.1979263 0.2294606 0.510189
2.2892509 0.04875236 0.52863497
2.2889104 0.062735848 0.52863497
2.276731 0.07831198 0.52593553
2.284452 0.080574512 0.52773517
2.2682745 0.095465794 0.52413595
2.2800393 0.093967907 0.52683532
2.263756 0.1091326 0.52323616
2.2558742 0.11072471 0.52143651
2.2532101 0.12439574 0.52098668
2.3325822 -0.016691895 0.53853279
2.3287446 -0.00040644262 0.537633
2.3365393 0.00081626256 0.53943259
2.3169899 0.016985508 0.53493357
2.3286908 0.015851999 0.537633
2.3070836 0.032214232 0.53268409
2.3009744 0.047396131 0.5313344
2.3775215 -0.065995254 0.54910553
2.3642862 -0.049112927 0.54595619
2.3460715 -0.031530838 0.54168218
2.3557916 -0.033306438 0.54393166
2.3423369 -0.015126362 0.54078233
2.4156914 -0.14986609 0.55877846
2.4117441 -0.13399261 0.55765367
2.3912098 -0.11611334 0.55270475
2.3850954 -0.10038212 0.55113006
2.3910234 -0.098541431 0.5524798
2.3818429 -0.083592013 0.55023026
2.45505 -0.22299501 0.56912619
2.4366808 -0.1853535 0.56417727
2.424233 -0.16845512 0.56102794
2.4252839 -0.15258592 0.56102794
2.4848945 -0.27653003 0.57722443
2.4760137 -0.25892851 0.57474995
2.46507 -0.24126786 0.57182556
2.4632983 -0.23935838 0.57137567
2.5230491 -0.33395785 0.58757216
2.50985 -0.31439787 0.58397293
2.5192416 -0.31780756 0.58622247
2.5003719 -0.29549602 0.5812735
2.5344055 -0.3372615 0.59027153
2.2305808 0.17045902 0.59942496
2.2255507 0.18492901 0.59838963
2.2660375 0.094183154 0.60770714
2.2738397 0.092519894 0.60977769
2.2644172 0.10876937 0.60744834
2.2568948 0.12341396 0.6056366
2.2539277 0.14101602 0.60511893
2.239398 0.15580937 0.6014955
2.2345517 0.16919461 0.60046023
2.3123727 0.015740918 0.61961281
2.3064115 0.03180293 0.61805987
2.3102968 0.030243417 0.61909521
2.2984483 0.045737825 0.61598933
2.3061335 0.04790394 0.61805987
2.2941835 0.062679194 0.61495411
2.278224 0.078761414 0.61081296
2.2860012 0.077432573 0.61288351
3.4850421 -1.9024744 0.62886661
3.483232 -1.8975427 0.62824088
2.3411527 -0.034325548 0.62737739
2.3452108 -0.016372925 0.62841266
2.3220856 -0.00040528039 0.62220097
2.3336763 -0.0016292136 0.62530684
2.3201106 0.014172772 0.62168342
5.3470554 -4.9670515 0.63850296
5.3455439 -4.9569645 0.6378057
2.3843541 -0.084097475 0.63928306
2.3636413 -0.066848196 0.63358909
2.3524444 -0.050919749 0.63048321
2.3544023 -0.049728792 0.63100088
2.352766 -0.032852944 0.63048321
2.4139323 -0.15144876 0.64808291
2.4062037 -0.13494861 0.64575356
2.4041309 -0.11926409 0.64497709
2.3991144 -0.10223059 0.64342415
2.3934124 -0.099895239 0.64187121
2.4448469 -0.20529884 0.65740037
2.4366555 -0.18663487 0.65481222
2.4403436 -0.18905959 0.65584749
2.4300416 -0.17120369 0.65274167
2.4224813 -0.16854666 0.65067112
2.4215376 -0.15362321 0.65015346
2.4745033 -0.26095411 0.66671789
2.4647295 -0.24253751 0.66361207
2.5144923 -0.318546 0.67914116
2.4879789 -0.27995101 0.67085898
3.4858906 -1.9033326 0.77201319
5.3283753 -4.9566336 0.8935461
5.3297901 -4.9492803 0.89305866
3.4784372 -1.9004452 0.91510093
3.4801958 -1.9053513 0.91600066
3.4795384 -1.9073603 1.0632287
3.4896755 -1.9089588 1.0658169
5.3126993 -4.9385934 1.1488549
5.3141699 -4.9486117 1.1501063
5.3134484 -4.9531369 1.4119867
5.3263922 -4.9565225 1.4142764
-2.3764524 7.7151937 1.5692132
5.3192201 -4.9567828 1.6785848
5.3334117 -4.9787097 1.6844335
-2.3736174 7.6964393 1.8594455
-2.3680456 7.7022319 1.8603452
5.3129272 -4.9561186 1.9468369
-2.3698735 7.7033911 2.1595864
