# .PCD v0.7 - Point Cloud Data file format
VERSION 0.7
FIELDS x y z
SIZE 4 4 4
TYPE F F F
COUNT 1 1 1
WIDTH 1076
HEIGHT 1
VIEWPOINT 0 0 0 1 0 0 0
POINTS 1076
DATA ascii
3.418653 -2.1871607 -0.21269335
3.3981707 -2.1449153 -0.21059991
3.3848319 -2.1323676 -0.20965785
3.358779 -2.0874035 -0.20725042
3.3504155 -2.0781553 -0.20662238
3.3494182 -2.0493109 -0.20578501
3.3542566 -2.0490544 -0.20599434
2.0674658 0.27769512 -0.18250412
2.0598116 0.28948763 -0.18198119
2.0556633 0.29036817 -0.18163256
2.0419724 0.30153233 -0.1805867
2.0378487 0.31547585 -0.1804124
2.0316629 0.32905793 -0.18006375
2.0392411 0.33211172 -0.18076101
2.0293162 0.34323359 -0.18006375
2.0192547 0.3429819 -0.1791922
2.0130117 0.35567355 -0.17884359
1.9981313 0.38152564 -0.17797202
1.9964651 0.39531171 -0.17805918
1.9886349 0.40893161 -0.17762341
1.9928235 0.40834412 -0.17797202
1.9779367 0.42114621 -0.17692617
1.9751004 0.4342528 -0.17692615
1.9644824 0.44523832 -0.17622891
1.9719423 0.44837663 -0.17692617
1.9652059 0.45985001 -0.17657752
1.9648845 0.46122178 -0.17657752
1.9579504 0.47313565 -0.17622891
1.9516994 0.48607183 -0.17596743
1.9336547 0.49647796 -0.17466012
1.9436513 0.49759966 -0.17553167
1.9343503 0.509633 -0.17500873
1.9320674 0.51047516 -0.17483442
1.9268991 0.52208287 -0.17466012
1.9303795 0.52447253 -0.17500873
1.9249395 0.53672802 -0.17483443
1.9125737 0.54751951 -0.17405002
1.9055933 0.56084609 -0.17378855
1.913729 0.56142741 -0.17448579
1.8962088 0.57141536 -0.17326561
1.89598 0.58581734 -0.17361423
1.8901535 0.59777802 -0.17343993
1.8821437 0.60973018 -0.17309129
1.8915306 0.60002869 -0.17361423
1.881611 0.61137235 -0.17309129
1.8679527 0.62102312 -0.17221974
1.8759501 0.62222797 -0.17291699
1.8647356 0.63371974 -0.1723069
1.8576691 0.64509106 -0.17204544
1.8703897 0.6509729 -0.17326561
1.8564144 0.6606738 -0.17239405
1.86063 0.66071206 -0.17274268
1.8325433 0.67969763 -0.17099957
1.848012 0.67225659 -0.17204544
1.8522264 0.67232591 -0.17239405
1.8278743 0.69215572 -0.17099957
1.8329792 0.69555122 -0.1715225
1.8246095 0.70625472 -0.17117387
1.8235919 0.71980309 -0.1715225
1.8213621 0.72002536 -0.17134818
2.9391346 -1.3239834 -0.16894048
2.9454913 -1.3293214 -0.16935916
2.9273076 -1.296593 -0.16778909
2.9172521 -1.2897036 -0.16716106
2.9051485 -1.2625916 -0.16600966
2.9133584 -1.2637423 -0.16642836
2.8918452 -1.2328801 -0.16475362
2.8890295 -1.2292968 -0.16454425
2.8727415 -1.2011046 -0.16318353
2.8551843 -1.1704143 -0.16171812
2.8484032 -1.165893 -0.16129944
2.8323758 -1.1363114 -0.15993871
2.8264515 -1.1133687 -0.15920599
2.8328044 -1.1135873 -0.15952002
2.8171954 -1.08763 -0.15826395
2.7899594 -1.0525687 -0.15627518
2.7929604 -1.0559288 -0.15648453
2.7693145 -1.0222032 -0.15470509
2.7702947 -1.0253128 -0.15480977
2.7473674 -0.97127515 -0.15271634
2.7310991 -0.94519413 -0.15146028
2.7226567 -0.92050934 -0.15062289
2.7146075 -0.91937202 -0.15020421
2.7019982 -0.89412361 -0.14915749
2.6909184 -0.87018043 -0.14821544
2.6896245 -0.86768836 -0.14811078
2.6810336 -0.84532708 -0.14732572
2.666826 -0.82042205 -0.14622667
2.6548538 -0.79800975 -0.14528462
2.6296935 -0.7704711 -0.14360988
2.6138864 -0.7239123 -0.14214447
2.5973577 -0.70106316 -0.14099309
2.5808792 -0.67756248 -0.13984169
2.5681288 -0.65508592 -0.13889965
2.5551918 -0.63281786 -0.1379576
2.5476813 -0.61305523 -0.13732956
2.5519929 -0.61220825 -0.1375389
2.5423808 -0.59209907 -0.1368062
2.5230725 -0.56906098 -0.13555014
2.491292 -0.5077647 -0.13324735
2.4812279 -0.48679748 -0.13251466
2.4669032 -0.46612623 -0.1315726
2.4743443 -0.46976894 -0.1319913
2.4716692 -0.4514069 -0.13167727
2.4682884 -0.44767404 -0.13146794
5.0309978 -5.1070843 -0.12513375
2.0590301 0.30258259 -0.10906815
2.0427189 0.31695992 -0.10833544
2.0509453 0.31603742 -0.10875413
2.0327425 0.32886922 -0.10791675
2.0184622 0.34176013 -0.10728873
2.0226393 0.34101507 -0.10749806
2.0122788 0.35409492 -0.10707937
2.009886 0.36743367 -0.10707937
2.0174873 0.37027788 -0.10749806
2.0070722 0.38250628 -0.10707937
2.0151877 0.38259524 -0.10749806
1.9925972 0.39418343 -0.10645135
2.00071 0.39433721 -0.10687003
1.9858838 0.40728226 -0.10624201
1.9901521 0.40634832 -0.10645135
1.9772772 0.41920125 -0.10592799
1.9821819 0.43436104 -0.10634668
1.9752054 0.4473055 -0.10613734
1.9664404 0.45869118 -0.10582332
1.9515394 0.46960378 -0.10519528
1.9660397 0.46040601 -0.10582332
1.9511286 0.47130746 -0.10519528
1.9422297 0.4824515 -0.10488126
1.940922 0.49581823 -0.10498594
1.9521843 0.50014627 -0.10561397
1.9351261 0.51019961 -0.10488127
1.9432085 0.51087892 -0.10529996
1.9345918 0.52380365 -0.10503827
1.9165028 0.53311491 -0.10425323
1.9069731 0.54483479 -0.10393922
1.9091169 0.55898893 -0.10425323
1.9049683 0.57296658 -0.10425323
1.889267 0.58338052 -0.10362521
1.8934911 0.58323735 -0.10383455
1.8855639 0.59524065 -0.10362521
1.8753963 0.60736442 -0.10331119
1.8694853 0.61899734 -0.10320652
1.8766351 0.62281871 -0.10362521
1.872463 0.63525134 -0.10362521
1.8564364 0.64502704 -0.10299717
1.8644347 0.64634681 -0.10341586
1.848582 0.65534401 -0.10278783
1.8518883 0.65797079 -0.10299717
1.8397402 0.6681571 -0.10257848
1.8402061 0.66687262 -0.10257848
1.8356246 0.67938215 -0.10257848
1.8463852 0.68483168 -0.10320652
1.8340887 0.69487387 -0.10278783
1.8248439 0.70506322 -0.10252615
1.8172777 0.71621126 -0.10236914
1.8039856 0.7542541 -0.10247381
3.3893578 -2.141835 -0.069984153
3.3861516 -2.1356761 -0.069879435
3.3617814 -2.0917106 -0.069111533
3.3564463 -2.0851421 -0.06897191
3.3368027 -2.040792 -0.068273813
3.3421979 -2.0472991 -0.068413429
2.9247143 -1.2972767 -0.055847701
2.4626458 -0.45109153 -0.043700829
2.4671297 -0.44879827 -0.043770637
2.4480097 -0.43076912 -0.043386683
2.4484596 -0.42820537 -0.043386683
2.0774453 0.26023334 -0.03654534
2.0487146 0.30764559 0.036161385
2.0543773 0.31032825 0.0362661
2.0405345 0.32136464 0.036056671
2.0316629 0.35056397 0.035986863
2.0174205 0.36226445 0.035777435
2.0255466 0.36226419 0.035917051
2.0130072 0.37527072 0.035742529
2.0046523 0.38712332 0.035637815
2.0056813 0.40259522 0.035707623
1.9940481 0.41458082 0.03555055
1.9803157 0.42635113 0.035358574
1.9697127 0.43739718 0.035218958
1.9752626 0.44007573 0.035323672
1.9752231 0.45384037 0.035376027
1.9671834 0.46629167 0.035288766
1.9520167 0.47801682 0.035079334
1.9409621 0.48933643 0.034939718
1.9529393 0.49090728 0.03514915
1.9347699 0.50144738 0.034887359
1.9343005 0.51503885 0.034939718
1.9283599 0.52934849 0.034904812
1.9210042 0.54087436 0.034835003
1.9092563 0.55288392 0.034695383
1.9135807 0.55232674 0.034765195
1.9037286 0.56463397 0.034660481
1.8980293 0.57666475 0.034625575
1.875934 0.60049164 0.034381241
1.8897924 0.60311025 0.034625575
1.8786153 0.61493313 0.034503408
1.873383 0.62755275 0.034485955
1.8691801 0.63996333 0.034485955
1.8687329 0.64126801 0.034485955
1.8625512 0.65298736 0.034451053
1.8483038 0.66324574 0.034276526
1.8544146 0.66397667 0.034381241
1.8457423 0.67617589 0.034311429
1.8373511 0.68732262 0.03424162
1.8346204 0.70020705 0.034276526
1.8330394 0.71540999 0.034346335
1.8224274 0.72596866 0.034241624
2.7028551 -0.88342917 0.049634643
2.7137947 -0.88857788 0.049844075
2.6931157 -0.86155492 0.049355406
2.6918116 -0.85906661 0.049320504
2.6745415 -0.83405042 0.048901644
2.6627979 -0.81105095 0.048587501
2.67293 -0.81209826 0.048762023
2.647857 -0.78433096 0.048203547
2.654839 -0.78891981 0.048343167
2.6337233 -0.76143026 0.047854498
2.6064904 -0.71427631 0.047173854
2.5959556 -0.6919421 0.046894617
2.584444 -0.66886389 0.046597924
2.5653272 -0.6467461 0.046179067
2.5735357 -0.64690495 0.046318687
2.5546765 -0.62323534 0.045899831
2.5620103 -0.62691987 0.046039447
2.5431869 -0.60259008 0.04562059
2.5356383 -0.58213472 0.045411162
2.5242195 -0.56006819 0.045131925
2.5316355 -0.56356835 0.045271542
2.5197742 -0.54295337 0.044992302
2.5123322 -0.53951472 0.044852685
2.503926 -0.52127326 0.044643257
2.5003736 -0.5187127 0.044573449
2.4918199 -0.50062889 0.044364017
2.4921687 -0.49888918 0.044364017
2.4775856 -0.47979906 0.044049874
2.4818466 -0.47882682 0.044119682
2.4770637 -0.46110827 0.043980062
2.8034937 -1.0722324 0.052392125
2.8117149 -1.0731272 0.052531745
2.7935762 -1.0447537 0.05206053
2.7721381 -1.0133613 0.051519506
2.7825181 -1.0199093 0.051728934
2.7632182 -0.99100798 0.051240265
2.7527845 -0.98455554 0.051030833
2.7458744 -0.96212959 0.050786503
2.7351716 -0.93805891 0.05047236
2.7302773 -0.91512793 0.050262932
2.719378 -0.90989113 0.0500535
2.0461111 0.30798396 0.10844011
2.0542803 0.30738163 0.1088588
2.0379362 0.3216835 0.10812609
2.0422184 0.32016805 0.10833544
2.0259626 0.33321637 0.10760274
2.0178025 0.3456344 0.10728873
2.0214972 0.34772009 0.10749806
2.0114703 0.35865998 0.10707937
2.0230155 0.36217588 0.10770741
2.0086567 0.37409624 0.10707937
2.0167725 0.3741512 0.10749806
1.9982201 0.38624394 0.10666069
2.0102568 0.38711402 0.10728873
1.987642 0.39861292 0.10624201
1.9957538 0.39879164 0.10666069
1.9869456 0.41202036 0.10634668
1.9743682 0.42326778 0.10582332
1.9896928 0.42800713 0.10666069
1.9771383 0.43868285 0.10613734
1.964294 0.45024294 0.10561398
1.9613453 0.46291983 0.10561397
1.9430671 0.48734426 0.10498594
1.9485375 0.49016142 0.10529996
1.9384757 0.50132418 0.1049336
1.927994 0.51372093 0.10456725
1.9302826 0.51288682 0.10467192
1.9228016 0.52529758 0.10446258
1.9112551 0.53704953 0.10404389
1.9076993 0.54954737 0.10404389
1.9148939 0.55342996 0.10446258
1.9064925 0.56436604 0.1042009
1.8958175 0.57563037 0.10383455
1.8860314 0.58707148 0.10352053
1.880193 0.59896219 0.10341586
1.8797745 0.60027456 0.10341586
1.8759656 0.61207378 0.10341586
1.8830239 0.61619431 0.10383455
1.8674221 0.62519389 0.10320652
1.8754358 0.62642026 0.10362521
1.8554543 0.63562572 0.10278783
1.8634573 0.63691413 0.10320652
1.8551943 0.64859056 0.10299717
1.8430985 0.65883648 0.10257848
1.8445182 0.66079742 0.10268316
1.8384541 0.67168766 0.10257848
1.8492378 0.67709118 0.10320652
1.8333614 0.68546611 0.10257848
1.8431958 0.68767685 0.10310185
1.8269091 0.69689745 0.10247381
1.8155472 0.70693964 0.10210747
1.8087114 0.71885973 0.10200278
1.804893 0.73105794 0.10205512
1.8136359 0.7360723 0.10257848
1.8010713 0.7456609 0.1021598
-1.2687572 6.349493 0.11302178
-1.7637045 7.2349954 0.12998553
2.5785441 -0.67069942 0.13963234
2.5828784 -0.66990191 0.13984169
2.5676725 -0.64876741 0.13879497
2.5719981 -0.64795047 0.13900432
2.5605004 -0.62797159 0.13816693
2.5497005 -0.60460341 0.13732956
2.55705 -0.60823208 0.13774826
2.537879 -0.58498245 0.13649218
2.5227144 -0.57963258 0.13565481
2.5185094 -0.56203055 0.13523613
2.515002 -0.55940491 0.13502678
2.5031309 -0.53891003 0.13418941
2.4949188 -0.51985109 0.13356137
2.4963536 -0.50289977 0.13345671
2.4849548 -0.49879849 0.13282867
2.4723549 -0.4801293 0.1319913
2.4637868 -0.46108511 0.13136327
2.4602611 -0.45820349 0.13115391
2.4652498 -0.44201392 0.13125859
-1.776668 7.2606478 0.13047419
-1.8596454 7.409018 0.13333638
-1.874411 7.4403577 0.13392976
-1.9673599 7.6126971 0.13724573
-1.9860508 7.6574335 0.13808344
2.7132185 -0.91099072 0.14999487
2.7023325 -0.90576142 0.14936683
2.6896091 -0.88065869 0.14832011
2.696739 -0.88455683 0.1487388
2.6899846 -0.86003572 0.1480061
2.6798735 -0.85886568 0.14748274
2.6737053 -0.83532786 0.14680237
2.6553087 -0.8102892 0.14549398
2.6539626 -0.80785364 0.1453893
2.6384761 -0.78305513 0.14423791
2.6454487 -0.78763711 0.1446566
2.6240287 -0.76135767 0.14319119
2.6227736 -0.75851256 0.14308652
2.6058292 -0.71556449 0.14162111
2.5898376 -0.69055474 0.14046971
2.5969517 -0.69487959 0.14088841
-2.0810931 7.8268185 0.1413645
-2.0925617 7.8423877 0.14167863
2.8326972 -1.1301315 0.15983403
2.8256361 -1.1045111 0.15899664
2.8152425 -1.0981832 0.15836863
2.8069775 -1.0752499 0.15753125
2.7928026 -1.0675848 0.15669388
2.7796118 -1.0403602 0.15554248
2.7826247 -1.0437033 0.15575182
2.7682302 -1.0135761 0.15449576
2.7555737 -0.98989493 0.15344904
2.7601967 -0.98883706 0.15365838
2.751111 -0.9666608 0.152821
2.7348225 -0.95879298 0.15187897
2.7187772 -0.93190581 0.15062289
2.7256815 -0.93639934 0.15104158
2.9160659 -1.2824922 0.16695172
2.9242759 -1.2836672 0.16737041
2.9038162 -1.2505808 0.16569565
2.9102778 -1.2557729 0.16611435
2.8793588 -1.2162888 0.16381156
2.8821876 -1.2198555 0.1640209
2.8562045 -1.1836628 0.16203214
2.8629632 -1.1882204 0.16245082
2.8446667 -1.1565452 0.16093308
2.8409076 -1.1311088 0.16025271
2.0202334 0.36058632 0.17954083
2.0149238 0.37308046 0.17927936
2.0073793 0.38619637 0.17884359
1.9989811 0.39798555 0.17832063
1.991892 0.41286436 0.17797202
1.9890358 0.42641222 0.17797202
1.9764373 0.43744171 0.17710048
1.9716288 0.44975308 0.17692617
1.9731776 0.45191815 0.17710046
1.9665015 0.46305001 0.17675185
1.9590161 0.47719482 0.17640322
1.9537046 0.49037373 0.17622891
1.9367301 0.50051248 0.17500873
1.9343307 0.5136019 0.17509589
1.9261681 0.52477354 0.17466012
1.9353192 0.52908027 0.17553167
1.8975573 0.55992162 0.17309129
1.9165462 0.5517329 0.1744858
1.9008278 0.57679129 0.17378855
1.8873136 0.6001423 0.17326561
1.8925894 0.60327411 0.17378855
1.8711787 0.61123377 0.17221974
1.8728621 0.62519705 0.17274268
1.8588032 0.63568562 0.17187113
1.866789 0.63696146 0.17256837
1.8510095 0.6460402 0.1715225
1.855837 0.66229433 0.17239405
1.8377146 0.67141747 0.17117387
1.8475422 0.67354649 0.17204544
1.8360214 0.68463433 0.17143534
1.8349817 0.69869471 0.17178397
2.0494318 0.30555823 0.18128395
2.0511346 0.30764198 0.18145825
2.0393746 0.31862828 0.1805867
2.0430324 0.3210263 0.18093532
2.0409751 0.33385685 0.18093532
3.3885484 -2.1264565 0.20965785
3.3836324 -2.1192582 0.20923917
3.3540373 -2.0723045 0.20662238
3.3541443 -2.0683284 0.2065177
3.4226818 -2.1771309 0.21258868
2.5439253 -0.60558039 0.22878382
2.5345011 -0.58467013 0.22756365
2.5236425 -0.56502593 0.22625631
2.521874 -0.54524839 0.22573337
2.5041661 -0.52314818 0.22381595
2.4940853 -0.50289726 0.22259575
2.4818473 -0.482647 0.22120127
2.478302 -0.46402502 0.22059119
2.6282322 -0.74421018 0.23898104
2.6160769 -0.72107887 0.23741224
2.6128623 -0.71774006 0.2370636
2.5962725 -0.69518274 0.23514619
2.5854023 -0.67392874 0.2337517
2.5935853 -0.67412841 0.23444894
2.5823183 -0.65390664 0.23305444
2.5711839 -0.64917725 0.23200859
2.5674727 -0.63110691 0.23131134
2.5601723 -0.62741745 0.2306141
2.7090955 -0.88860989 0.24943975
2.695008 -0.86423516 0.24760947
2.6807179 -0.84008598 0.24577919
2.6775007 -0.83702534 0.24543057
2.6617482 -0.81377804 0.24351314
2.6546926 -0.80959475 0.24281588
2.6443148 -0.78880692 0.24142142
2.6564605 -0.78990638 0.24246727
2.6389463 -0.76468742 0.24037553
2.6440175 -0.76865852 0.24089848
2.0010352 0.36870348 0.24983218
1.9878353 0.39540508 0.24885723
1.9725609 0.42036045 0.24763852
1.9696538 0.43377754 0.24763852
1.973227 0.43600994 0.248126
1.9586793 0.44643953 0.24666359
1.9557556 0.45907894 0.24666359
1.9447855 0.470853 0.2456886
1.9415181 0.50030422 0.24617608
1.9264657 0.51079297 0.24471366
1.9306601 0.51046282 0.24520114
1.9172895 0.52199399 0.24398245
1.9001271 0.56067991 0.24325122
1.9003674 0.57375526 0.2437387
1.8866301 0.58473122 0.24252
1.8808185 0.59663057 0.24227627
1.8681033 0.62288398 0.24178879
1.8648703 0.63558036 0.24191067
1.8540529 0.64564973 0.24105757
1.84763 0.65791184 0.24081384
1.835354 0.68292713 0.24044824
1.8296137 0.69537115 0.24032637
1.8247769 0.70796674 0.24032637
2.770304 -1.0159808 0.25815532
2.7621536 -0.99171454 0.25676081
2.7708344 -0.99701542 0.25763237
2.7483313 -0.96514529 0.25484338
2.7551749 -0.96970963 0.25554064
2.7411537 -0.9433198 0.25362319
2.7341104 -0.93929505 0.25292596
2.7155693 -0.91336244 0.25065991
2.7292683 -0.91637957 0.25188008
2.7160449 -0.89299011 0.25013697
2.0497258 0.30596873 0.2544632
2.0456624 0.31942606 0.25421947
2.0295818 0.33199316 0.25251329
2.0317724 0.33089533 0.25275704
2.0176706 0.34307417 0.25129461
2.0072212 0.35681811 0.25031966
2.0144413 0.37262785 0.25153834
2.0043283 0.38343456 0.25056338
2.8389418 -1.1320487 0.2673938
2.8437014 -1.136248 0.26791674
2.829108 -1.1081456 0.265825
2.8076131 -1.0974661 0.2637333
2.8083181 -1.0763252 0.26312318
2.8021407 -1.0504655 0.26181585
2.7920809 -1.048918 0.26094431
2.9219472 -1.2844703 0.27924702
2.9066212 -1.2547984 0.27698094
2.884932 -1.2219081 0.2741048
2.8759127 -1.194477 0.27244884
2.8586519 -1.1631036 0.27000847
2.9338133 -1.2921313 0.28046718
2.4696746 -0.46531072 0.30857319
2.4720309 -0.46352121 0.30881694
2.4578557 -0.44179517 0.30662328
2.4651277 -0.44621205 0.30759826
1.8421948 0.65633869 0.30974028
1.8315934 0.67970902 0.30942741
1.8292674 0.68029809 0.30911455
1.8180561 0.70426548 0.30880168
2.5298507 -0.58452713 0.31881022
2.5333097 -0.58718961 0.3192977
2.5133321 -0.56317925 0.31625098
2.5044978 -0.54332268 0.31466669
2.4926872 -0.52256525 0.31271678
2.4844251 -0.50365603 0.31125432
2.4925592 -0.50349361 0.31222928
2.4822049 -0.48428971 0.31052309
1.9618458 0.44608054 0.31865704
1.951793 0.45886764 0.31756201
1.9470333 0.47031823 0.31724915
1.9562207 0.47434452 0.31881347
1.9435329 0.48457867 0.31724912
1.9345366 0.4959847 0.31631052
1.9195453 0.53666919 0.3156848
1.9086343 0.54621112 0.31443331
1.9100558 0.54842162 0.31474617
1.9066703 0.56007844 0.31474617
1.884689 0.59822142 0.31318185
1.8749909 0.60903919 0.31224322
1.8634654 0.61880904 0.31099173
1.8590997 0.63180429 0.31099173
1.8485969 0.64411259 0.31005314
1.8463749 0.65637583 0.310366
1.8394238 0.66985959 0.31005314
1.8436044 0.66992372 0.31067887
1.8206316 0.71936923 0.31005314
1.8239284 0.72177607 0.31067887
-1.0703589 5.9907804 0.31893536
2.5778539 -0.67196113 0.32709733
2.5831461 -0.67526686 0.32782856
2.5368712 -0.60670793 0.32027265
2.5469487 -0.60723859 0.32149133
2.0546403 0.30468553 0.3289817
2.0376298 0.31799141 0.32663518
2.0418658 0.31646264 0.32726091
2.0278499 0.32916674 0.32538372
2.0295691 0.33090013 0.32569659
2.0255027 0.34331483 0.32538372
2.0311046 0.34572417 0.32632235
2.0181308 0.35694069 0.32460156
2.0089195 0.36906779 0.3235065
2.0106039 0.37082937 0.3238194
1.9963923 0.38227656 0.32194218
2.0024798 0.38199425 0.32288077
1.9897997 0.3954356 0.32131645
1.9939507 0.39481378 0.32194218
1.9796067 0.40599489 0.32006493
1.99086 0.41011447 0.32194218
1.9861645 0.42289636 0.32162932
1.9735935 0.43428403 0.32006493
-1.1261891 6.0882187 0.32448295
-1.1336886 6.0990162 0.325111
2.6473937 -0.79173863 0.33928427
2.6404741 -0.7871595 0.33830932
2.6337986 -0.76768231 0.33684689
2.6034369 -0.71832705 0.33160651
2.5981474 -0.69617146 0.33026594
2.6032901 -0.69998485 0.33099717
-1.1917068 6.2059436 0.33118194
-1.2001516 6.2205901 0.33201933
-1.2572552 6.3091211 0.33714828
-1.2686377 6.3373981 0.33871832
3.3877792 -2.1243262 0.34984317
3.3651099 -2.0815809 0.34618258
3.3614769 -2.0760903 0.34565967
2.7037458 -0.89051545 0.34952128
2.6928971 -0.88537949 0.34805888
2.6795106 -0.86236066 0.3456215
2.6741025 -0.84006357 0.34415907
2.6765828 -0.83879012 0.34440279
2.663105 -0.8152101 0.34196538
3.3994207 -2.135761 0.35123762
2.752955 -0.99139613 0.35927087
2.7406647 -0.96675366 0.35683349
2.7525737 -0.96879417 0.35829589
2.7398405 -0.94500762 0.3558585
2.7311141 -0.93986487 0.3546398
2.7155724 -0.9146834 0.3518368
2.7967317 -1.0730046 0.3678017
2.8052461 -1.0785186 0.3690204
2.7941294 -1.0519141 0.36658302
2.780179 -1.0438931 0.36463311
2.7716026 -1.0213991 0.36268318
2.7650399 -1.016241 0.36170825
5.0292749 -5.1357265 0.37671426
2.8470678 -1.1615777 0.37755126
2.832891 -1.1330755 0.3746264
2.8163197 -1.1048379 0.37145779
2.8207872 -1.1043187 0.37194526
1.816237 0.70301348 0.37856507
1.8094589 0.71495467 0.37818345
1.8049309 0.72630978 0.37818345
2.898309 -1.2548109 0.3877883
2.9046509 -1.2551495 0.3885195
2.8786163 -1.2201217 0.38388845
2.8923812 -1.2283388 0.38583836
2.8648601 -1.191353 0.38096359
2.8715656 -1.1959053 0.38193855
1.9486895 0.46963862 0.38963199
1.9464532 0.47053662 0.3892504
1.9374056 0.48269105 0.38810554
1.9434581 0.48275831 0.3892504
1.9343346 0.49485379 0.38810554
1.9268581 0.50801945 0.38734227
1.9223628 0.52103335 0.38715148
1.9160743 0.53281552 0.38657904
1.9043766 0.54535222 0.38505259
1.9104201 0.54564017 0.38619745
1.8950951 0.56999892 0.38467094
1.9022158 0.57358795 0.38619745
1.8927419 0.58445406 0.38505259
1.8775923 0.59344393 0.38276285
1.8846637 0.59712738 0.38428935
1.869668 0.60532808 0.38199964
1.8711123 0.60723919 0.38238126
1.8642488 0.61870766 0.38180882
1.8663899 0.633919 0.3831445
1.8582103 0.64564294 0.38238126
1.8453324 0.65564352 0.38066399
1.8438292 0.66854858 0.3812364
1.8339509 0.6951887 0.3812364
1.8312547 0.70772421 0.38161799
1.8209156 0.71801317 0.38047317
1.8208103 0.73417807 0.38161799
1.8067616 0.75800925 0.38085476
-1.7516358 7.2018728 0.38843751
2.9466085 -1.3224044 0.39656287
2.916261 -1.2856159 0.39132249
2.4719112 -0.48272994 0.39890796
2.4653113 -0.46471226 0.39734358
2.466357 -0.44821304 0.39703071
2.023838 0.34230688 0.39898163
2.008708 0.35491297 0.39650109
2.0166895 0.35487157 0.3980276
2.0034776 0.36734623 0.39592868
1.9942467 0.37934169 0.39459303
2.009409 0.38367853 0.39764598
1.9991509 0.39529908 0.39611951
1.982702 0.40735191 0.39344814
1.9945976 0.40798122 0.39573789
1.9782561 0.41904926 0.39306656
1.9674609 0.43185401 0.39154011
1.9738147 0.44844007 0.39344814
1.9591676 0.45951909 0.39115849
1.9614797 0.45825499 0.39154008
-1.7673903 7.2391477 0.39053094
-1.8510789 7.3912754 0.3993234
2.515193 -0.56497771 0.40829402
2.5052783 -0.54578102 0.40610394
2.5133803 -0.54570836 0.4073554
2.4939294 -0.52328074 0.40360096
2.5090277 -0.5282777 0.40610394
2.4886334 -0.50496095 0.40219307
2.4832046 -0.48673531 0.40078515
2.0374656 0.3001402 0.40031728
2.0507972 0.30393273 0.40298861
2.0430818 0.31555578 0.40184379
2.0369525 0.32918406 0.40108052
2.0366645 0.33096239 0.40108052
-1.8633671 7.4129019 0.40057945
-1.9495111 7.5599685 0.40916255
2.5644016 -0.63177609 0.41830578
2.5606368 -0.61380923 0.41705433
2.5476158 -0.6088075 0.41486427
2.5398462 -0.59010619 0.41298702
2.5325596 -0.58655006 0.41173556
-1.9661155 7.5969353 0.41125599
2.6157079 -0.72441673 0.42988196
2.6049137 -0.71898043 0.42800474
2.6035349 -0.70151275 0.42706612
2.5907917 -0.69565463 0.42487606
2.5892601 -0.67831367 0.42393744
2.5916443 -0.67700523 0.42425033
2.5817187 -0.65615231 0.42190379
-2.0585856 7.7585244 0.42067644
-2.0756328 7.7953248 0.42276987
2.6537073 -0.81283927 0.43958092
2.6397007 -0.79094386 0.43645221
2.6479607 -0.79090124 0.43770367
2.6350644 -0.76830029 0.43473142
2.7035482 -0.87165922 0.44990557
2.7003949 -0.86856192 0.44927984
2.683188 -0.84446156 0.44552541
2.6743531 -0.83962959 0.44396105
2.6663575 -0.81875068 0.44177097
2.7352736 -0.94503528 0.45835301
2.7247276 -0.93926299 0.45647582
2.7167788 -0.91667277 0.45412931
2.705056 -0.89251715 0.45115703
1.9242725 0.5059011 0.45935005
1.904171 0.54241693 0.45710054
1.9111917 0.54622132 0.45890018
1.9040782 0.55679208 0.45800033
1.8964118 0.56895155 0.45710054
1.8886687 0.58103019 0.45620075
1.8717629 0.60546547 0.45417619
1.8645539 0.61808681 0.45350131
1.8565027 0.62983662 0.45260152
1.8760861 0.6204564 0.45620075
1.8624796 0.63041484 0.45395124
1.8543501 0.6421268 0.45305145
1.8378745 0.66530097 0.4512518
1.8447373 0.66924226 0.45305145
1.8384304 0.68078589 0.45260152
1.8282853 0.69121659 0.4512518
2.7760365 -1.0246845 0.4686777
2.7806375 -1.0236264 0.46930346
2.765414 -0.99615556 0.46554902
2.7546852 -0.97332138 0.46273321
2.7479117 -0.96877074 0.46148172
1.9969318 0.37876919 0.46924794
1.996667 0.38016218 0.46924794
1.9943075 0.39235219 0.46924794
1.9780023 0.4186337 0.46677345
1.9742306 0.43153527 0.4665485
1.963644 0.44324616 0.46474886
1.9567059 0.45605949 0.46384907
1.9441359 0.48328695 0.46249935
1.9362545 0.49462387 0.46137464
2.8112321 -1.0825099 0.4771252
2.8009233 -1.0762957 0.47524795
2.7854507 -1.0503124 0.47149354
2.7898808 -1.0497588 0.47211927
2.0435576 0.301402 0.47689623
2.0553362 0.30167332 0.47959566
2.0297937 0.31422886 0.47419682
2.0358453 0.31334689 0.47554654
2.0267317 0.32735005 0.4739719
2.015898 0.3391549 0.47194731
2.0132339 0.35462573 0.47194731
2.008857 0.36796919 0.47149745
2.0148644 0.367616 0.4728471
3.3789358 -2.1220689 0.48991477
3.3462739 -2.0731609 0.48333386
3.3447051 -2.068152 0.48284638
2.855386 -1.1667154 0.48854488
2.8455429 -1.1410174 0.48557264
2.840837 -1.1368289 0.48463401
2.8332155 -1.1131781 0.48213109
2.8284748 -1.1090367 0.48119247
2.4734066 -0.48660809 0.48999751
2.4675055 -0.46534798 0.48808944
3.3972449 -2.1377034 0.49283966
2.8861926 -1.2263063 0.49667948
2.8660038 -1.1953504 0.49182999
2.8702765 -1.1953685 0.49245578
2.506114 -0.54642153 0.49858394
2.4898794 -0.52379221 0.49457693
2.495276 -0.52674687 0.49572179
2.4796555 -0.50539303 0.4919056
2.4819317 -0.50405252 0.49228725
2.47961 -0.48558137 0.49114239
2.4786725 -0.46969426 0.49037915
2.9160922 -1.2643235 0.50340617
2.9042838 -1.2567958 0.50121611
2.5362253 -0.60842597 0.50697958
2.5335126 -0.59003299 0.50564384
2.5339239 -0.58826411 0.50564384
2.5317247 -0.57147747 0.50449902
2.5225463 -0.56755513 0.50259089
2.5867829 -0.67718232 0.51976377
2.5667129 -0.65281582 0.51480269
2.5795727 -0.65800428 0.517474
2.5593295 -0.63384408 0.51251298
2.6043227 -0.72150791 0.52529716
2.5966694 -0.70112133 0.52281672
2.606637 -0.70186067 0.52472478
1.8855293 0.57898396 0.52850848
1.8693802 0.60451412 0.526438
1.875423 0.60466111 0.52799088
1.8645203 0.61627007 0.52617919
1.8574276 0.62834287 0.52540267
1.8495675 0.63938636 0.52436739
1.8582476 0.6438396 0.5269556
1.8482449 0.65486145 0.52540272
1.8541659 0.6555019 0.5269556
1.8381792 0.66577417 0.52384979
1.8459108 0.66711718 0.52592033
1.8340778 0.67699063 0.52384979
1.8244467 0.70253259 0.52384979
1.8166132 0.71466899 0.52307332
2.6514449 -0.81569099 0.53922629
2.6456535 -0.79423743 0.53693652
2.6388223 -0.78967696 0.53541011
2.6322916 -0.77023464 0.53312039
2.6291931 -0.76683784 0.53235716
1.9684449 0.43027061 0.53989661
1.9655479 0.44331592 0.53989661
1.9626441 0.45600024 0.53989661
1.9514893 0.46959174 0.537826
1.9465408 0.48171991 0.53730834
1.9354702 0.49406472 0.53523779
1.9470478 0.4955726 0.53834367
1.9248526 0.50425774 0.5331673
1.9301053 0.50707394 0.53472012
1.9194199 0.51718086 0.53264964
1.9358432 0.52305585 0.53730839
1.9153917 0.53190559 0.53264964
1.9288881 0.53384101 0.53627306
1.9097737 0.54473466 0.53213197
1.9176817 0.5451802 0.53420252
1.8987989 0.55488813 0.53006142
1.8943561 0.58314288 0.5310967
1.8876834 0.59482175 0.53032029
2.6868057 -0.86677897 0.54876673
2.6637664 -0.83885974 0.54285163
2.6595211 -0.81614345 0.54075271
2.023134 0.34073439 0.54973167
2.0112536 0.35282952 0.54714346
2.0210149 0.3530868 0.54973167
2.0060186 0.36563998 0.54636705
2.001585 0.37892792 0.54584944
1.9979432 0.39270598 0.54559064
1.9885631 0.40511966 0.54377884
1.9791802 0.41707805 0.54196709
1.9807785 0.41886023 0.54248476
1.9744074 0.43012998 0.54144943
1.9660081 0.45859033 0.54093182
1.9631701 0.47059157 0.54093182
2.7193985 -0.91835004 0.55792552
2.7052352 -0.89257628 0.55372775
2.7102034 -0.89631402 0.55487263
2.0374715 0.29941449 0.55180228
2.0453782 0.29875332 0.55387276
2.0295489 0.31310296 0.55024934
2.037514 0.31214777 0.55231988
2.029506 0.32580033 0.55076694
2.0388136 0.32875565 0.5533551
2.0271819 0.33996198 0.55076694
2.7446761 -0.97140169 0.56593949
2.7416513 -0.96817786 0.56517625
2.7328382 -0.94579589 0.5621233
2.7426112 -0.94757038 0.56403142
-1.2578849 6.3295693 0.56459486
-1.2665251 6.3441005 0.56598938
2.785073 -1.0496148 0.57853287
2.7717147 -1.0236394 0.5743351
2.7581353 -0.99788654 0.57013732
2.7606781 -0.99662751 0.57051897
2.467761 -0.46896532 0.57992381
2.4633071 -0.45032403 0.57812423
2.4561858 -0.44592178 0.57632458
2.8095753 -1.1061548 0.58692849
2.817656 -1.1070647 0.58845496
2.808826 -1.0810205 0.58502042
2.795248 -1.0780361 0.58234906
2.7935228 -1.0550271 0.580441
2.4956942 -0.50866199 0.58802205
2.4781508 -0.48709223 0.58307308
2.483546 -0.48995376 0.58442283
2.8438833 -1.1420807 0.59570575
2.835568 -1.1364433 0.59379762
2.5261703 -0.588323 0.59881973
2.5298169 -0.57243913 0.59881973
2.5147152 -0.55059582 0.59432071
2.515099 -0.54884011 0.59432071
2.5119174 -0.53117621 0.59274602
2.8804016 -1.2031264 0.6067726
2.8755956 -1.199351 0.60562783
2.8634996 -1.1720729 0.60142994
2.5628858 -0.63567442 0.60961735
2.5428443 -0.61095226 0.60376859
2.5518899 -0.61501032 0.60601819
2.54094 -0.59363317 0.60241896
2.9111271 -1.2857813 0.61860281
2.8984163 -1.2560589 0.61402339
2.9011402 -1.2596458 0.61478662
2.8899946 -1.2308991 0.61058879
2.8924456 -1.230154 0.61097044
2.5870013 -0.69802654 0.61861545
2.5836787 -0.68022585 0.61681581
2.5748467 -0.67549837 0.61456627
2.5668824 -0.65572119 0.61164188
5.0310493 -5.1429219 0.62943876
3.3707829 -2.0907886 0.62824088
3.3558104 -2.0774486 0.62511224
2.9263868 -1.2949632 0.62203735
2.6008437 -0.72127783 0.62311447
2.6133552 -0.72720408 0.62626374
2.5957963 -0.70283031 0.62086493
2.6392977 -0.7918272 0.63616157
2.6442039 -0.79581517 0.63751125
2.6347358 -0.77294725 0.63391209
2.6260574 -0.76791281 0.63166255
2.6750827 -0.84447813 0.64763409
2.661072 -0.82068664 0.64291006
2.6560569 -0.81710976 0.64156044
-1.7484496 7.2107043 0.64913595
2.696409 -0.89253491 0.65573227
2.6868134 -0.86859339 0.65190816
-1.7594529 7.2285347 0.65087909
2.7218423 -0.94199038 0.66495532
2.7303896 -0.94708353 0.6672048
2.7147884 -0.92048973 0.66180599
2.7098925 -0.91672087 0.6604563
-1.8427017 7.3742218 0.66499835
-1.8564062 7.401598 0.66761297
2.7677183 -1.0021737 0.67957711
2.7567706 -0.97784835 0.67530304
2.7410882 -0.96959352 0.67125398
2.4597414 -0.46699643 0.67085898
2.7858157 -1.051561 0.68745047
2.7940099 -1.0574405 0.68969995
2.7752752 -1.0268813 0.6831764
2.5076401 -0.53255796 0.68690574
2.5004513 -0.52920711 0.68483526
2.4866948 -0.5099929 0.68017644
-1.9437883 7.5541306 0.68242943
-1.957852 7.581368 0.68504417
2.8143833 -1.1074803 0.69824809
2.8085616 -1.0848601 0.69509876
2.8002264 -1.0793946 0.69284928
2.5284286 -0.59024477 0.69570565
2.5355394 -0.59377164 0.69777614
2.5283186 -0.57349187 0.69467032
2.5381403 -0.57385683 0.69725859
2.5155673 -0.55078244 0.69001162
2.5246165 -0.55461103 0.69259977
2.8367286 -1.1409327 0.70589644
2.8355172 -1.1387209 0.70544648
2.8335514 -1.1173083 0.703197
2.5660472 -0.65598547 0.70968187
2.5555646 -0.634332 0.70554072
2.5626202 -0.6379829 0.70761132
2.5449057 -0.61285716 0.70139962
2.5519886 -0.6164481 0.70347023
-2.0556335 7.7637949 0.70264959
-2.0726402 7.8005095 0.70613581
2.8663001 -1.1972362 0.71714395
2.8539343 -1.1710657 0.71219504
2.8491373 -1.1673546 0.71084529
2.5884619 -0.69987482 0.71848166
2.5740097 -0.67912155 0.71330529
2.5819564 -0.67929047 0.7153759
2.5749454 -0.66017562 0.71227002
-0.92869735 5.727622 0.71244824
2.888351 -1.230199 0.7247923
2.8964534 -1.2360395 0.72704178
2.8852377 -1.2075127 0.72209287
2.6014943 -0.72537148 0.72365808
-0.98755324 5.8325615 0.72634137
2.9287953 -1.2984749 0.73963904
2.919919 -1.270223 0.73514003
2.9118676 -1.2643036 0.73289055
2.6337419 -0.77415347 0.73556381
2.6418321 -0.77402759 0.7376343
2.627939 -0.75255674 0.73245794
2.9314833 -1.2972184 0.740089
2.6627884 -0.82172525 0.74669302
2.6489668 -0.79750055 0.74125779
-1.0492933 5.9447722 0.74120939
2.6924067 -0.8722198 0.75833988
2.6729383 -0.84431309 0.75109291
2.6815569 -0.84909481 0.75368112
-1.1140848 6.0642095 0.75705242
-1.1229799 6.082756 0.75948983
3.3590157 -2.0859258 0.76857871
3.345454 -2.0742693 0.76514411
2.7145629 -0.92199838 0.76817495
2.7092507 -0.89836037 0.76481032
3.3927321 -2.1356905 0.77926397
2.7403316 -0.971479 0.7790454
2.7233183 -0.94409829 0.7723161
2.7317827 -0.94916958 0.77490425
2.7223635 -0.92305809 0.77024549
-1.1780299 6.1754308 0.77192044
-1.1852835 6.1841488 0.77313918
2.764534 -1.0012932 0.78784519
2.7709224 -1.006343 0.78991574
2.7487547 -0.97662562 0.78163356
-1.2473298 6.2994719 0.78849471
-1.2539881 6.3042221 0.78922594
2.7828407 -1.0299562 0.79509211
2.8063684 -1.08514 0.80622137
2.8039396 -1.0617573 0.80337441
2.8299761 -1.1176111 0.81528002
2.8163772 -1.1099683 0.81113893
2.8583832 -1.1737654 0.82796216
2.8413181 -1.1439307 0.82071519
2.8720777 -1.2037728 0.83443266
2.881618 -1.2059979 0.83702081
2.9036918 -1.2625612 0.84840888
2.895123 -1.2360688 0.84349132
2.9205205 -1.2723035 0.85358524
2.9358578 -1.3022197 0.86057341
4.9992809 -5.0536728 0.8728283
-1.7298822 7.1504765 0.90329564
-1.7445534 7.1836867 0.90768296
3.3658321 -2.0934162 0.91510093
3.364346 -2.0884225 0.91420108
-0.92274356 5.7098236 0.91608036
3.3972671 -2.1460035 0.92769814
3.3908963 -2.1378415 0.92544866
-1.8269875 7.3330822 0.92791325
-0.98198217 5.8181639 0.93453962
-0.98969966 5.8328853 0.93704253
-1.8420507 7.3661504 0.93230057
-1.0431144 5.927896 0.95331174
-1.0517271 5.9464355 0.95644045
-1.9299343 7.5220447 0.95350581
-1.9424376 7.543427 0.95643073
-1.1040488 6.0273371 0.97051954
-1.1118112 6.0399704 0.97270966
-2.0356097 7.7099171 0.97909838
-1.1679393 6.1399975 0.9899174
-2.0484378 7.731164 0.9820233
-1.1777437 6.1622596 0.99367183
-1.2333508 6.2460341 1.0083766
-1.2468723 6.285646 1.0149469
3.3570764 -2.0863454 1.0590875
3.3650937 -2.095401 1.0621934
3.4009984 -2.1508527 1.0782403
3.3979733 -2.1447906 1.0766873
-0.9765113 5.8042655 1.1440908
-0.98321009 5.8130908 1.145999
-1.0366814 5.9094634 1.1662247
-1.7223248 7.1355824 1.162621
-1.7332025 7.1532755 1.1657498
-1.0462697 5.9336915 1.1711857
-1.0980248 6.0181522 1.1891217
-1.1078788 6.0422955 1.1940827
-1.8146979 7.3000607 1.1914051
-1.8272842 7.32339 1.1954722
-1.1753954 6.1674838 1.2204144
-1.929492 7.5094314 1.2280107
-1.2327733 6.260354 1.2402586
-1.2420455 6.2785354 1.2440747
-0.91181523 5.6799593 1.3281111
-0.91894788 5.6926274 1.3312603
-0.96880871 5.7831721 1.3537554
-0.97676772 5.7996202 1.3578045
-1.0282761 5.8856888 1.3793999
-1.0367821 5.9039831 1.383899
-1.0895697 5.9895687 1.4054942
-1.0986507 6.0097022 1.4104432
-1.1548951 6.1062779 1.4347378
-1.1613173 6.111011 1.4360875
-1.7286698 7.1563783 1.4310676
-1.7242582 7.1655197 1.4325941
-1.8068521 7.2847886 1.4589256
-1.2196963 6.2168365 1.4626317
-1.2311473 6.2463617 1.4698302
-1.8226941 7.3213115 1.466558
-1.292981 6.3552113 1.4972742
-1.9067433 7.4641161 1.4974691
-1.9239825 7.5042872 1.5058646
-2.0122192 7.6537867 1.5383022
-2.0264096 7.6805019 1.5440264
-0.9650473 5.7792869 1.5699965
-0.97200906 5.7898736 1.5731021
-1.0236021 5.8770847 1.5984664
-1.0330609 5.9009266 1.6051958
-1.0846028 5.9800444 1.6284895
-1.0957097 6.0114045 1.6372893
-1.1496053 6.1016173 1.6636889
-1.1610382 6.1328802 1.6724888
-1.7167362 7.1233139 1.6916319
-1.2192526 6.2318439 1.7014765
-1.2269228 6.2421517 1.7045823
-1.2876967 6.3462439 1.735123
-1.3040397 6.398119 1.7496167
-1.9060061 7.4558039 1.7766634
-1.3762075 6.5192828 1.7853339
-1.3693228 6.5148096 1.7837809
-1.437355 6.6089153 1.812251
-1.4497136 6.637857 1.8205333
-1.5165062 6.7457356 1.8526268
-1.5304741 6.7802143 1.862462
-1.6020081 6.9005833 1.8981789
-1.613291 6.9217591 1.9043906
-1.8975554 7.4389758 2.0570939
-2.0014412 7.6236119 2.1119635
