# .PCD v0.7 - Point Cloud Data file format
VERSION 0.7
FIELDS x y z
SIZE 4 4 4
TYPE F F F
COUNT 1 1 1
WIDTH 461
HEIGHT 1
VIEWPOINT 0 0 0 1 0 0 0
POINTS 461
DATA ascii
-4.2319937 -2.342936 -0.084434748
-4.2840281 -2.3396096 -0.085202649
-4.2587838 -2.319073 -0.084644176
-4.2367797 -2.3176486 -0.084295124
-4.2753482 -2.3010764 -0.084748887
-4.2667851 -2.2916667 -0.084539458
-4.2695818 -2.2864525 -0.084539458
-4.2843428 -2.2650952 -0.084591813
-4.2889786 -2.2584529 -0.084609263
-4.3113546 -2.2328858 -0.084748887
-4.3068495 -2.2372284 -0.084713981
-4.2981901 -2.2365432 -0.084574364
-4.3304019 -2.2045469 -0.084818691
-4.3205814 -2.206198 -0.084679075
-4.3119192 -2.2055712 -0.084539458
-4.3430271 -2.1795697 -0.084818691
-4.3371511 -2.1756701 -0.084696531
-4.3530507 -2.1504672 -0.084748887
-4.3585916 -2.143748 -0.084783792
-4.3473773 -2.143889 -0.084609263
-4.3734508 -2.1132681 -0.084783792
-4.3622379 -2.1134872 -0.084609263
-4.3917117 -2.0843983 -0.084853604
-4.38411 -2.0864179 -0.084748887
-4.4072666 -2.0607638 -0.084923409
-4.409781 -2.055378 -0.084923409
-4.421546 -2.0299451 -0.084923409
-4.4131126 -2.0195491 -0.084713981
-4.4297919 -1.9973367 -0.084818691
-4.424933 -1.9886434 -0.084679075
-4.4405379 -1.9585112 -0.084713981
-4.4289985 -1.9598898 -0.084539458
-1.7040792 -3.0622537 -0.061170682
-1.6232015 -3.0618157 -0.060490038
-1.6173213 -3.0558789 -0.060350422
-1.6391466 -3.0442276 -0.060350422
-1.7148862 -3.0298183 -0.060769279
-1.7270224 -3.002172 -0.060455136
-1.7014905 -3.0098259 -0.060350422
-1.7219385 -2.9981747 -0.060350422
-1.7378474 -2.9727783 -0.060106091
-1.6508484 -3.0128393 -0.059966467
-1.6458657 -3.0087278 -0.059861753
-1.5112787 -3.0048437 -0.058709893
-1.4781728 -2.9856071 -0.05815142
-1.4725441 -2.9794674 -0.0580118
-1.7307317 -2.9653559 -0.059931565
-1.4432976 -2.9670823 -0.057592943
-1.4394791 -2.9644914 -0.057523135
-1.4104789 -2.9518254 -0.057104275
-1.4049743 -2.9455898 -0.056964654
-1.7429806 -2.937264 -0.059617423
-1.7636868 -2.9225428 -0.059582517
-1.3745452 -2.9290156 -0.056475986
-1.3691072 -2.9227312 -0.056336369
-1.7559763 -2.9155161 -0.05940799
-1.3423471 -2.9131143 -0.055987321
-1.3369708 -2.9067836 -0.055847701
-1.3067706 -2.894176 -0.055428844
-1.3071423 -2.8896194 -0.055359036
-1.2761949 -2.8771882 -0.054940175
-1.2423129 -2.8571243 -0.054381698
-1.2154025 -2.8425958 -0.053962842
-1.2102785 -2.8360865 -0.053823221
-1.1816087 -2.8178172 -0.053334557
-1.1757811 -2.8094182 -0.05316003
-1.149307 -2.8009081 -0.052845888
-1.150502 -2.7982554 -0.052810986
-1.1237557 -2.7940211 -0.052566648
-1.1242111 -2.7895267 -0.052496839
-1.0946907 -2.7776129 -0.052112885
-1.0653133 -2.7558069 -0.051571861
-1.0398102 -2.7430878 -0.051205363
-1.0352947 -2.7383828 -0.051100649
-1.0108947 -2.7240334 -0.050716694
-1.0085171 -2.7249143 -0.050716694
-0.98486447 -2.7154779 -0.050420001
-0.95634806 -2.6991475 -0.049983691
-0.93131006 -2.680383 -0.049529929
-0.92812878 -2.6772537 -0.04946012
-0.90489239 -2.667254 -0.049163431
-0.87808698 -2.6519847 -0.048762023
-0.87867874 -2.6475751 -0.048692215
-0.85585982 -2.6466339 -0.048552595
-0.85524088 -2.6384268 -0.048412975
-0.83424383 -2.634655 -0.048238453
-0.8299948 -2.6276097 -0.048098832
-0.80724335 -2.615859 -0.04778469
-0.77653331 -2.5834057 -0.047086593
-0.76028585 -2.5882337 -0.047086593
-0.73834735 -2.5800204 -0.046842258
-0.75566757 -2.5791686 -0.04691207
-0.73425019 -2.5707927 -0.046667732
-0.71119261 -2.5523648 -0.046248876
-0.68948334 -2.5500295 -0.046109259
-0.68961412 -2.5417073 -0.045969639
-0.6677717 -2.5309916 -0.045690399
-0.6635288 -2.5238376 -0.045550782
-0.64391315 -2.5206585 -0.045411162
-0.64605588 -2.5180457 -0.045376256
-0.62433213 -2.5152788 -0.045236636
-0.62507683 -2.5089118 -0.045131925
-0.60432291 -2.5037072 -0.044957399
-0.58314139 -2.4881907 -0.044608355
-0.57958448 -2.480808 -0.044468731
-0.56130606 -2.4686046 -0.044189494
-0.55695552 -2.4613893 -0.044049874
-0.53847492 -2.4542389 -0.043857899
-0.51920772 -2.455322 -0.043805543
-0.51970017 -2.4449966 -0.043631013
-0.50261819 -2.4485652 -0.043631013
-0.49767843 -2.4352884 -0.043386683
-0.47968563 -2.4225903 -0.043107443
-0.47679812 -2.4190841 -0.043037634
-0.46088755 -2.4160588 -0.04293292
-0.45612147 -2.4047523 -0.042723492
-0.44003886 -2.3975823 -0.042548969
-0.43752745 -2.398042 -0.042548969
-0.42190087 -2.3927186 -0.042409346
-0.4198125 -2.393086 -0.042409346
-0.40289524 -2.3858523 -0.042234823
-0.38415462 -2.3757753 -0.042007942
-0.36660504 -2.3653946 -0.04178106
-0.36373416 -2.3577449 -0.041641444
-0.3472122 -2.3541703 -0.041536726
-0.330888 -2.348443 -0.04139711
-0.31342405 -2.3427675 -0.041257489
-0.31085277 -2.3390758 -0.041187681
-0.29530212 -2.3310115 -0.041013155
-0.29317465 -2.3272493 -0.040943347
-0.27664676 -2.3131611 -0.040664107
-0.27455947 -2.3093822 -0.040594298
-0.24105336 -2.3050771 -0.040454678
-0.25769901 -2.2992511 -0.04038487
-0.24201585 -2.2949228 -0.040280156
-0.22489449 -2.2936497 -0.040227793
-0.20778918 -2.283215 -0.040018369
-0.19144037 -2.2655799 -0.039686773
-0.18846379 -2.2537897 -0.039477345
-0.17287751 -2.2570443 -0.039512251
-0.15807483 -2.252115 -0.039407533
-0.14320551 -2.251106 -0.039372627
-0.17407493 -2.2469239 -0.039337724
-0.14073999 -2.2432473 -0.03923301
-0.12543687 -2.233139 -0.039041035
-0.11027476 -2.2229276 -0.038849056
-0.10823764 -2.2210257 -0.038814154
-0.093596786 -2.2146854 -0.038691986
-0.077815808 -2.2062917 -0.038534913
-0.06229955 -2.2027836 -0.038465105
-0.046537213 -2.1851716 -0.038150959
-0.031327061 -2.1754432 -0.037976436
-0.016079638 -2.1676102 -0.03783682
-0.0022678419 -2.165669 -0.037801914
0.013794564 -2.165626 -0.037801914
0.027815124 -2.1534925 -0.037592482
0.029638879 -2.1494684 -0.037522674
0.042609438 -2.1412501 -0.037383057
0.23853055 -2.14344 -0.037644841
0.25419447 -2.1476798 -0.037749559
0.044395093 -2.1372132 -0.037313245
0.074092284 -2.1323884 -0.037243433
0.26619965 -2.1311116 -0.037487768
0.05794521 -2.1208854 -0.037034009
0.071825095 -2.120461 -0.037034009
0.26693961 -2.1249731 -0.037383057
0.2817682 -2.1230578 -0.037383057
0.29658282 -2.1210389 -0.037383057
0.087303296 -2.1138754 -0.036929294
0.20530367 -2.1147342 -0.037086364
0.2190353 -2.1123507 -0.037068911
0.27950069 -2.1173065 -0.037278343
0.29482627 -2.1192646 -0.037348151
0.3096143 -2.1171548 -0.037348151
0.17412993 -2.1044867 -0.036859483
0.19065274 -2.103054 -0.036859483
0.22025478 -2.1061924 -0.036964197
0.30992925 -2.1090245 -0.037208531
0.32250381 -2.1051149 -0.037173625
0.10138429 -2.0992327 -0.036684956
0.11490233 -2.0945313 -0.036615148
0.32342726 -2.0989037 -0.037068911
0.11628515 -2.0864439 -0.036475532
0.33497617 -2.0889909 -0.036929294
0.33520752 -2.0788271 -0.036754768
0.34827667 -2.0756636 -0.036737315
0.36276081 -2.0731812 -0.036737315
0.37685788 -2.073714 -0.036789671
0.37651169 -2.0615814 -0.036580246
0.3883557 -2.0553129 -0.036510434
0.40412757 -2.0522702 -0.036510434
0.38902986 -2.0490799 -0.036405724
0.40038463 -2.0407779 -0.036301006
0.41733027 -2.0475852 -0.036475532
-1.1199178 -1.802026 -0.037034009
-1.1336311 -1.7946134 -0.037051462
-1.1412729 -1.7790816 -0.036894388
-1.1596889 -1.7527635 -0.036684956
-1.1551584 -1.7485673 -0.036580246
-1.1663221 -1.7363249 -0.036510434
-1.1838648 -1.7122698 -0.036335908
-1.1688042 -1.7153311 -0.036231197
-1.1917502 -1.6994692 -0.036231197
-1.1977875 -1.6829619 -0.036056671
-1.1825929 -1.6839087 -0.035917051
-1.1943198 -1.6756116 -0.035917051
-1.1966128 -1.6542709 -0.035637815
-1.2207876 -1.6390063 -0.035672721
-1.2196432 -1.639858 -0.035672721
-1.1998494 -1.6345929 -0.03539348
-1.2292209 -1.6276821 -0.035602912
-1.2399455 -1.5968012 -0.035288766
-1.2523005 -1.5896767 -0.035323672
-1.2361498 -1.5896212 -0.03514915
-1.2447405 -1.5778121 -0.035079334
-1.2526779 -1.5663996 -0.035009526
-1.2623237 -1.5560629 -0.03497462
-1.2690758 -1.5428011 -0.034869909
-1.2734095 -1.5262269 -0.034695383
-1.2770481 -1.5101128 -0.034520861
-1.2886072 -1.5002613 -0.034520861
-1.2755175 -1.506169 -0.034451049
-1.2990493 -1.4912289 -0.034520861
-1.2862575 -1.499643 -0.034485955
-1.3057475 -1.4800382 -0.034451049
-1.2927586 -1.4861002 -0.034381241
-1.3067805 -1.4791263 -0.034451049
-1.3144585 -1.4696255 -0.034416147
-1.3166251 -1.4515263 -0.034206714
-1.3077338 -1.4595418 -0.034206714
-1.3152016 -1.447417 -0.034136906
-1.323293 -1.4373059 -0.034102
-1.3313072 -1.4271528 -0.034067098
-1.3284562 -1.4216074 -0.033962384
-1.3436028 -1.4183388 -0.034102004
-1.3398639 -1.416371 -0.034032192
-1.3488249 -1.4050694 -0.03399729
-1.3458064 -1.3829572 -0.033683144
-1.3540244 -1.3721042 -0.033648238
-1.3711205 -1.3692075 -0.033822764
-1.3763715 -1.3553926 -0.03371805
-1.3697294 -1.3507371 -0.033578429
-1.3588523 -1.3588523 -0.033543523
-1.3819933 -1.3439295 -0.033648241
-1.3743235 -1.3346061 -0.033438813
-1.3780916 -1.320619 -0.033316642
-1.3867792 -1.310038 -0.033299193
-1.3815066 -1.3068826 -0.033194479
-1.4049351 -1.2905476 -0.033299193
-1.3925118 -1.2980841 -0.033229381
-1.4115351 -1.280351 -0.033264287
-1.4010904 -1.2888204 -0.033229381
-1.4035362 -1.2713102 -0.033054858
-1.4112755 -1.2627133 -0.033054858
-1.4091747 -1.2590629 -0.03298505
-1.4167444 -1.2490276 -0.032967597
-1.4413084 -1.2344786 -0.033124667
-1.4235975 -1.236642 -0.032915238
-1.419716 -1.235011 -0.03284543
-1.4459826 -1.2228155 -0.033054858
-1.4313391 -1.2276731 -0.032915238
-1.4361414 -1.2127745 -0.032810524
-1.4437327 -1.2037274 -0.032810524
-1.4399626 -1.1988804 -0.03270581
-1.4480898 -1.189051 -0.03270581
-1.4395363 -1.1837116 -0.032531288
-1.467472 -1.1714675 -0.032775622
-1.4559438 -1.1794211 -0.03270581
-1.4763739 -1.163462 -0.032810524
-1.4619681 -1.1687458 -0.032670904
-1.4661857 -1.1537744 -0.03256619
-1.4765646 -1.1469927 -0.032636002
-1.485329 -1.1356201 -0.032636002
-1.4765973 -1.1305784 -0.032461476
-1.4694647 -1.1398335 -0.032461476
-1.4860501 -1.1214471 -0.032496382
-1.5037632 -1.1178114 -0.03270581
-1.4850404 -1.1194649 -0.032461476
-1.5078219 -1.1055806 -0.032636002
-1.5005258 -1.0986215 -0.032461476
-1.5037258 -1.085719 -0.032374214
-1.5071955 -1.0722964 -0.032286953
-1.5215665 -1.0658088 -0.03242657
-1.5175483 -1.0645735 -0.032356761
-1.5268645 -1.0546902 -0.032391667
-1.5358434 -1.0451304 -0.03242657
-1.5347078 -1.028949 -0.032252047
-1.5572178 -1.0130081 -0.032426573
-1.5405397 -1.0165706 -0.032217141
-1.5381612 -1.0165436 -0.032182239
-1.5667776 -1.0037301 -0.032478929
-1.5707768 -0.99185324 -0.03242657
-1.6376263 -0.98243022 -0.033334095
-1.5697776 -0.98968959 -0.032391667
-1.6481545 -0.97452241 -0.03342136
-1.6244304 -0.97721404 -0.033089764
-1.5623786 -0.97136086 -0.032112427
-1.55592 -0.97792029 -0.032077521
-1.6305383 -0.9669885 -0.033089764
-1.5880389 -0.96782202 -0.032461476
-1.5762813 -0.96405458 -0.032252047
-1.5661103 -0.96913868 -0.032147333
-1.5579597 -0.96710569 -0.032007713
-1.6671352 -0.94168377 -0.03342136
-1.6561059 -0.94692618 -0.033299193
-1.6478438 -0.94525737 -0.033159573
-1.6679049 -0.93828255 -0.033403907
-1.6748674 -0.92992347 -0.033438813
-1.6549939 -0.92040139 -0.033054858
-1.2885106 -0.54694033 -0.024433369
-1.262024 -0.52739871 -0.023874892
-1.2405156 -0.51663077 -0.023456035
-1.2113907 -0.49547046 -0.022845201
-1.2048228 -0.48238274 -0.022653224
-1.1966995 -0.47574085 -0.0224787
-1.1951301 -0.46884769 -0.02240889
-1.1884819 -0.45835853 -0.022234365
-1.1778413 -0.45260265 -0.022024937
-1.1563745 -0.43592262 -0.021571174
-1.146258 -0.4229908 -0.02132684
-1.151318 -0.41495404 -0.021361746
-1.1432886 -0.41363895 -0.021222128
-1.1445106 -0.40427989 -0.021187222
-1.1543517 -0.39421648 -0.021291936
-1.1432832 -0.39567366 -0.021117412
-1.144528 -0.3858436 -0.021082507
-1.1448988 -0.37841767 -0.021047603
-1.1395965 -0.37534189 -0.020942887
-1.1421891 -0.3673766 -0.020942887
-1.1379979 -0.36734384 -0.020873079
-1.1528815 -0.35335165 -0.021047603
-1.1447259 -0.35939392 -0.020942887
-1.1309984 -0.35638553 -0.020698555
-1.1435258 -0.34285662 -0.020838173
-1.1372815 -0.34965628 -0.020768363
-1.132365 -0.33477399 -0.020611294
-1.1329274 -0.32208163 -0.020558937
-1.1250644 -0.32771331 -0.02045422
-1.1333853 -0.31303787 -0.020524029
-1.1272759 -0.31262136 -0.020419316
-1.1344172 -0.30545378 -0.020506579
-1.1392157 -0.2990804 -0.020558937
-1.1279715 -0.29465565 -0.020349504
-1.1278874 -0.28697214 -0.0203146
-1.122036 -0.2732088 -0.020157531
-1.1199394 -0.27757195 -0.020140078
-1.1271663 -0.2646513 -0.020209888
-1.1274129 -0.25469396 -0.020174982
-1.1199189 -0.2515634 -0.020035362
-1.1252565 -0.2459629 -0.020105172
-1.1262562 -0.23487361 -0.020081902
-1.134182 -0.22262061 -0.020174982
-1.1288215 -0.22904587 -0.020105172
-1.1454005 -0.21725404 -0.020349504
-1.1338745 -0.21363285 -0.020140078
-1.1435151 -0.20541136 -0.020279696
-1.1558182 -0.19300312 -0.02045422
-1.1481309 -0.19645691 -0.020332053
-1.155066 -0.18521744 -0.020419316
-1.1700732 -0.17988245 -0.020663649
-1.1176974 -0.24308461 -0.019965554
0.89913875 0.37925649 0.017033549
0.89351261 0.38480628 0.016981192
0.90433294 0.38237727 0.017138263
0.88531435 0.3960202 0.016928835
0.87886286 0.40776837 0.016911382
0.8805148 0.4160296 0.016998643
0.86661285 0.42417386 0.016841572
0.8757869 0.42129999 0.016963739
0.86486012 0.43593273 0.016905563
0.85535616 0.44859508 0.016859025
0.86557686 0.44627762 0.016998645
0.84439325 0.47572252 0.016917199
0.85615623 0.47242916 0.017068453
0.83302641 0.48483905 0.016824119
0.84252816 0.48037472 0.016928835
0.82593548 0.49294299 0.016789215
0.82385987 0.50793058 0.016893931
0.83649296 0.50513315 0.017056817
0.81668675 0.51938552 0.016893929
0.82221222 0.51437396 0.016928835
0.80729455 0.53748393 0.016928833
0.81256002 0.53314406 0.016963739
0.82293153 0.53554189 0.017138263
0.7981112 0.54750073 0.016893931
0.80269432 0.54254651 0.016911382
0.79426152 0.55655259 0.016928833
0.79590708 0.56635803 0.017051
0.8072992 0.56234264 0.017173167
0.78550529 0.57563603 0.016998643
0.78129268 0.5846945 0.017033549
0.7744298 0.59703517 0.017068453
0.78466767 0.59350574 0.017173167
0.76582533 0.60318762 0.017016096
0.75889713 0.61982477 0.017103357
0.76519305 0.61523163 0.017138263
0.75713474 0.62669098 0.017155714
0.76397896 0.62308609 0.017208073
0.77410901 0.62328982 0.017347692
0.7476052 0.63648778 0.017138261
0.7553153 0.63356048 0.017208073
0.74499416 0.64260781 0.017173167
0.74626046 0.65636915 0.017347693
0.75351131 0.65110266 0.017382598
0.73720294 0.66354817 0.017312787
0.72945201 0.67500728 0.017347692
0.73503786 0.67188787 0.017382598
0.72568196 0.68489027 0.0174175
0.73472857 0.68108177 0.017487312
0.71638656 0.6960429 0.017434955
0.72381246 0.69410616 0.017504763
0.70983118 0.70415562 0.017452406
0.71852702 0.70387977 0.017557122
0.70362842 0.71877319 0.017557122
0.71003801 0.71526259 0.017592026
0.7206893 0.71592504 0.017731644
0.70516241 0.72425407 0.017644383
0.7232253 0.72753042 0.017906168
0.69541579 0.73499632 0.017661836
0.69388467 0.74557322 0.017778186
0.68768352 0.75310999 0.017801456
0.6910398 0.75546062 0.017871264
0.67909586 0.76354092 0.01783636
0.67603981 0.77687299 0.01797598
0.681117 0.77775967 0.018045789
0.66518116 0.78444535 0.017952709
0.67635316 0.78190589 0.018045789
0.66550851 0.79115665 0.018045789
0.65338838 0.8114906 0.018185407
0.66381395 0.81333607 0.018325027
0.62533146 0.85817307 0.018534455
0.63845313 0.85095769 0.01856936
0.61409324 0.87765819 0.018697346
0.60083771 0.91643023 0.019127838
0.57490635 0.95398593 0.019441981
0.50301766 1.0826703 0.020838173
0.4815062 1.1185813 0.021257032
0.20849426 1.6163605 0.028447423
2.0842037 0.29996762 0.036754768
2.0962896 0.30021247 0.036964197
2.0560539 0.32564673 0.036335908
2.049844 0.33898282 0.0362661
2.0500803 0.33755076 0.0362661
2.0358486 0.34982288 0.036056671
2.0181231 0.39118734 0.035882145
1.9679749 0.48010486 0.035358574
1.9436004 0.51896936 0.035114244
1.9364439 0.53011423 0.035044432
1.9091036 0.5814864 0.034835003
1.9052052 0.59413397 0.034835003
1.8416024 0.70434409 0.034416147
1.8427298 0.71808052 0.034520861
1.8320979 0.72870964 0.034416147
1.8395449 0.74770963 0.034660477
0.046040073 1.9111544 0.033369001
-0.021380762 2.0415771 0.035637815
-0.098785803 2.1754267 0.038011342
-0.11457777 2.2046881 0.038534913
-0.18770978 2.33812 0.040943347
-0.29147413 2.5268574 0.044398922
-0.31104156 2.5628006 0.045062114
