# .PCD v0.7 - Point Cloud Data file format
VERSION 0.7
FIELDS x y z
SIZE 4 4 4
TYPE F F F
COUNT 1 1 1
WIDTH 743
HEIGHT 1
VIEWPOINT 0 0 0 1 0 0 0
POINTS 743
DATA ascii
4.8899827 -5.1764379 -0.12429604
4.8889999 -5.1663589 -0.12415642
4.955409 -5.1638436 -0.12492433
4.9315348 -5.1479492 -0.12443566
4.9980078 -5.1449513 -0.12520356
4.9885497 -5.1262565 -0.12485451
5.0486059 -5.1178069 -0.12548281
5.0566359 -5.061934 -0.12488942
5.0530977 -5.0513339 -0.1247149
5.0938196 -5.0302076 -0.12495923
5.1001782 -5.0294585 -0.12502904
5.1538029 -5.0118542 -0.12548281
5.1417069 -5.0070801 -0.12527338
5.211153 -5.0043039 -0.12611109
5.2117586 -4.9978967 -0.12604128
5.2523351 -4.9668865 -0.1261809
5.2372508 -4.9595523 -0.12590165
5.2980547 -4.9474354 -0.12652995
5.290668 -4.9319019 -0.12625071
5.3471751 -4.9238734 -0.12687899
5.3544145 -4.9219117 -0.1269488
5.401289 -4.9061856 -0.12736766
5.4144573 -4.9095297 -0.1275771
5.419024 -4.8536825 -0.12698372
5.4307113 -4.8556161 -0.12715824
5.4632688 -4.8249989 -0.12722805
5.4389777 -4.7951031 -0.12656485
5.3686361 -4.6751161 -0.12426113
5.3395119 -4.6415668 -0.12349322
5.3085961 -4.5580587 -0.12213194
5.2965956 -4.5413356 -0.12178289
5.2395563 -4.4356117 -0.11982822
5.2472329 -4.4358253 -0.11993293
5.1836672 -4.3280735 -0.11787355
5.1644015 -4.3043437 -0.11734998
5.1149468 -4.2104425 -0.11563965
5.1263442 -4.2123256 -0.11581416
5.1581912 -4.1859717 -0.1159538
5.1618423 -4.181469 -0.1159538
5.236546 -4.129642 -0.11640756
5.2102938 -4.1015697 -0.11574436
5.45928 -3.9985163 -0.11811788
5.4306893 -3.9834034 -0.11755942
5.0994763 -3.9641194 -0.11274255
5.4928565 -3.9659462 -0.11825751
5.5534949 -3.9568839 -0.11902541
5.5415916 -3.9425731 -0.11871127
5.0713363 -3.9351492 -0.11204445
4.7809916 -3.6632836 -0.1051333
4.5782547 -3.457485 -0.10014191
4.5854573 -3.4579003 -0.10024662
4.6066847 -3.4262185 -0.10021172
2.883744 -3.562398 -0.080001831
2.9126282 -3.5439994 -0.080071643
2.9580524 -3.5453286 -0.08059521
2.9459991 -3.537153 -0.080350876
4.2160163 -2.9597692 -0.089914799
4.2082567 -2.9499378 -0.08970537
4.1740799 -2.8870378 -0.088588417
4.1678672 -2.8784413 -0.088413894
4.1291933 -2.8146329 -0.087227128
4.1366081 -2.8144033 -0.087331839
4.1005974 -2.7534101 -0.086214885
4.0897098 -2.7409241 -0.085935652
4.0792198 -2.6989529 -0.085377172
4.0732303 -2.6898823 -0.085202649
4.0259213 -2.6234636 -0.083876267
4.0248561 -2.617769 -0.083806455
3.9902837 -2.5607331 -0.082759313
3.9840975 -2.5518575 -0.082584791
2.4376929 -3.8102489 -0.078954689
2.4345422 -3.7980189 -0.078745253
2.4609659 -3.7881072 -0.078849971
2.4599073 -3.7792547 -0.078710355
2.4884524 -3.7725034 -0.078884877
2.4928465 -3.7719991 -0.078919783
2.5280321 -3.7677882 -0.079199016
2.5158417 -3.7567008 -0.078919783
2.5510013 -3.752275 -0.079199016
2.5524945 -3.7488403 -0.079164118
2.574863 -3.7310829 -0.079129212
2.5740561 -3.7243493 -0.079024501
2.600848 -3.713016 -0.079129212
2.6011426 -3.7079251 -0.0790594
2.6243885 -3.6915088 -0.0790594
2.6339238 -3.6994498 -0.079268835
2.655304 -3.681669 -0.07923393
2.664371 -3.6874547 -0.079408452
2.6962948 -3.6840196 -0.079687685
2.6924145 -3.6719899 -0.079478264
2.7160692 -3.6545267 -0.079478264
2.741452 -3.6380296 -0.079513162
2.7391729 -3.6297297 -0.079373546
2.7673655 -3.6208735 -0.079548068
2.7705245 -3.6184568 -0.079548068
2.805532 -3.611661 -0.079827309
2.7925763 -3.6014655 -0.079548068
2.8303463 -3.5947928 -0.079862207
2.8553734 -3.5749459 -0.079862207
2.8805537 -3.5521145 -0.079827309
2.9431052 -3.4808447 -0.079565525
2.9545674 -3.4435019 -0.079199016
2.9443562 -3.4364526 -0.078989588
2.9848475 -3.3880279 -0.078815073
2.9917724 -3.3899202 -0.078919783
3.0158954 -3.3725011 -0.078972146
3.0452878 -3.3608413 -0.079164118
3.0455313 -3.3552213 -0.079094306
3.0619113 -3.3321371 -0.078989588
3.1022406 -3.3302398 -0.07944335
3.1160603 -3.3392277 -0.079722598
3.0648179 -3.329464 -0.078989588
3.5869184 -1.8048164 -0.070088863
3.5953252 -1.8059021 -0.070228487
3.6272573 -1.791127 -0.070612431
3.6173563 -1.7885945 -0.070437916
3.6540666 -1.7727435 -0.070891678
3.6369493 -1.7667922 -0.070577532
3.6753795 -1.7514915 -0.071066193
3.6813743 -1.7575029 -0.071205825
3.6950641 -1.7308933 -0.071223274
3.7255349 -1.7151304 -0.071589775
3.7321823 -1.715034 -0.071694486
3.753818 -1.6964916 -0.071903922
3.3509192 -2.0214036 -0.068308719
3.3489034 -2.0170002 -0.068238907
3.344316 -1.9857095 -0.067889862
3.350862 -1.9864334 -0.067994572
3.3546443 -1.9602959 -0.06782005
3.3681028 -1.9650072 -0.068064384
3.4526677 -1.9502445 -0.069216244
3.4614058 -1.9591669 -0.069425672
3.3888628 -1.9471092 -0.068221457
3.4470451 -1.9193888 -0.068867192
3.4364831 -1.9095808 -0.068622865
3.4655738 -1.8961656 -0.068954453
3.4980371 -1.88035 -0.069320954
3.4893529 -1.8796086 -0.069181338
3.5199187 -1.8605558 -0.069495484
3.5235951 -1.8664351 -0.069600195
3.5444384 -1.8439386 -0.069739819
3.5650766 -1.8235588 -0.069896892
3.0805593 -1.3896314 -0.058989134
2.9055059 -1.2863297 -0.05546375
2.8951952 -1.2600685 -0.055114701
2.8869035 -1.2540632 -0.054940179
2.8671393 -1.2241216 -0.054416601
2.8585825 -1.2186993 -0.054242078
2.8473377 -1.1913588 -0.05387558
2.8323581 -1.1622115 -0.053439267
2.8181391 -1.1334569 -0.05302041
2.7960243 -1.1025116 -0.052461937
2.778471 -1.0732374 -0.051990721
2.7658918 -1.0473506 -0.05162422
2.7703636 -1.046833 -0.051694028
2.7487609 -1.0189797 -0.051170457
2.7550981 -1.0191417 -0.051275171
2.7377021 -0.99103439 -0.050821409
2.7482884 -0.99703699 -0.051030833
2.7253666 -0.96617448 -0.050472356
2.7109344 -0.94086522 -0.050088406
2.6982002 -0.93486297 -0.049844075
2.694005 -0.91317987 -0.049652096
2.6780965 -0.88828915 -0.049250688
2.6825132 -0.88767576 -0.049320504
2.6693156 -0.86370909 -0.048971456
2.6488764 -0.83569592 -0.048482787
2.6540124 -0.8393538 -0.048587501
2.6387889 -0.81431878 -0.048203547
2.6298006 -0.80953473 -0.048029024
2.6174641 -0.78826553 -0.047714882
2.6219814 -0.78713095 -0.04778469
2.6075535 -0.76546699 -0.047435641
2.6158974 -0.76543754 -0.047575258
2.5904078 -0.73838592 -0.047016785
2.5739915 -0.71552539 -0.046632826
2.5566649 -0.69175678 -0.046231426
2.5486279 -0.67147338 -0.046004545
2.5510299 -0.67020202 -0.046039447
2.545732 -0.65079129 -0.045864925
2.5402889 -0.63148177 -0.045690399
2.5368471 -0.62874603 -0.04562059
2.5273523 -0.60863 -0.045376256
2.5140135 -0.58688045 -0.045062117
2.4966934 -0.56402797 -0.044678163
2.5001993 -0.5666548 -0.044747971
2.4884682 -0.54575944 -0.044468731
2.4966629 -0.54573011 -0.044608355
2.4730208 -0.52249974 -0.044119682
2.4804802 -0.52588505 -0.044259302
2.4589744 -0.50162494 -0.043805543
2.4645007 -0.50454468 -0.043910254
2.445528 -0.48223233 -0.04350885
2.4240773 -0.46154055 -0.04307254
2.4323378 -0.46091411 -0.043212157
2.4856467 -0.41840744 -0.043997519
2.4540617 -0.3948344 -0.043386683
2.4636562 -0.39814273 -0.043561205
2.4465468 -0.37830827 -0.043212157
2.4586692 -0.37842539 -0.043421589
2.4689114 -0.36413679 -0.043561205
2.4711435 -0.36270347 -0.043596111
2.4665632 -0.34533626 -0.043473944
2.4936924 -0.33140144 -0.043910258
2.4821115 -0.31180322 -0.043665919
2.4937968 -0.31503975 -0.043875352
2.4641652 -0.29383391 -0.043316875
2.4723129 -0.29305506 -0.043456491
2.4542329 -0.27528632 -0.043107443
2.4623742 -0.27445894 -0.043247063
2.4483192 -0.25560069 -0.042967826
2.456095 -0.25814599 -0.043107443
2.4379358 -0.2390417 -0.042758394
2.458005 -0.23927709 -0.043107443
2.4315796 -0.22129105 -0.042618778
2.4237669 -0.21887405 -0.042479157
2.4131029 -0.20305805 -0.042269729
2.4371929 -0.20294341 -0.042688586
2.418611 -0.18440357 -0.042339537
2.426424 -0.18712917 -0.042479157
2.4078407 -0.16710576 -0.042130109
2.4117134 -0.1690664 -0.042199921
2.3968689 -0.15121821 -0.041920681
2.3969738 -0.14954484 -0.041920681
2.3859215 -0.13318661 -0.041711252
2.3708148 -0.1157448 -0.041432012
2.3675258 -0.10005661 -0.041362204
2.375587 -0.098735906 -0.04150182
2.3661971 -0.082628727 -0.041327298
2.350719 -0.065866828 -0.041048057
2.3251443 -0.048298836 -0.040594298
2.343112 -0.049899466 -0.040908441
2.3194206 -0.032387324 -0.040489584
2.3075867 -0.016915796 -0.040280156
2.3195958 -0.015384369 -0.040489584
2.3136475 -0.0012114231 -0.04038487
2.3096483 0.00040378288 -0.040315062
2.3016016 0.0148631 -0.040175438
0.43315601 -2.0483837 -0.03654534
0.44559172 -2.0436683 -0.036510434
0.42925188 -2.0369453 -0.036335908
0.44530907 -2.0355425 -0.036370814
0.45708114 -2.0257571 -0.036248647
0.46965098 -2.0198004 -0.036196291
0.49908069 -2.0106704 -0.036161385
0.4818742 -2.0086944 -0.036056671
0.51161975 -2.0013249 -0.036056671
0.465958 -1.9960222 -0.035777435
0.49444547 -1.9994578 -0.035951961
0.50691152 -1.9901438 -0.035847243
0.52282113 -1.9942937 -0.035986863
0.47894508 -1.988832 -0.035707623
0.52303505 -1.9880351 -0.035882145
0.55074137 -1.9805385 -0.035882145
0.54634237 -1.9713831 -0.035707623
0.52944291 -1.9635649 -0.035498194
0.53115612 -1.9631022 -0.035498194
0.57687145 -1.9689187 -0.035812337
0.55694282 -1.9538631 -0.035463288
0.56932664 -1.9482075 -0.035428386
0.58176523 -1.9403545 -0.035358574
0.58311981 -1.9399478 -0.035358574
0.5933252 -1.9274373 -0.035201505
0.60629821 -1.9223474 -0.035184052
0.62238771 -1.9235052 -0.035288766
0.6176393 -1.9145321 -0.035114244
0.63337147 -1.9157046 -0.035218958
0.64448714 -1.9046065 -0.035096791
0.65711462 -1.8981705 -0.035061881
0.6701746 -1.8904171 -0.035009526
0.66719145 -1.8872305 -0.034939718
0.67967087 -1.880646 -0.034904812
0.68370771 -1.8876917 -0.035044432
0.69555485 -1.8833586 -0.035044432
0.69548124 -1.879122 -0.034974623
0.70792723 -1.8744683 -0.03497462
0.71883881 -1.8638828 -0.034869909
0.72793388 -1.8517578 -0.034730289
0.7317493 -1.856703 -0.034835003
0.74463236 -1.8537288 -0.034869909
0.75793916 -1.8526499 -0.034939718
0.75803822 -1.8482877 -0.034869909
0.76857692 -1.8395963 -0.034800097
0.78061628 -1.8323464 -0.034765191
0.79100049 -1.8213491 -0.034660477
0.80741113 -1.8228858 -0.034800097
0.80420369 -1.8199316 -0.034730289
0.81932366 -1.8175623 -0.034800097
0.82953548 -1.8085258 -0.034730289
0.83027816 -1.8059841 -0.034695383
0.83862615 -1.7910887 -0.034520861
0.84044838 -1.7990668 -0.034660477
0.83475876 -1.7508947 -0.03385767
0.8289355 -1.7425934 -0.033683144
0.87967873 -1.7197828 -0.03371805
0.87504858 -1.6816694 -0.033089764
0.87081629 -1.677108 -0.03298505
0.88553995 -1.6739063 -0.033054858
0.87847745 -1.6640682 -0.03284543
0.89458394 -1.6645514 -0.032985047
0.90570223 -1.6573887 -0.032967597
0.91433811 -1.6457809 -0.032862879
0.92869389 -1.6434679 -0.032950144
0.94412827 -1.6438806 -0.033089764
0.92361581 -1.6371492 -0.032810524
0.95400321 -1.635855 -0.033054858
0.93402809 -1.6289266 -0.032775622
0.96438026 -1.627435 -0.033019952
0.98720622 -1.6160345 -0.033054858
1.001627 -1.6142008 -0.033159573
2.2895927 0.016383965 -0.039966013
2.278439 0.031218801 -0.039774034
2.2651701 0.046857581 -0.039547153
2.2628164 0.061625443 -0.039512251
2.2707684 0.063428417 -0.039651867
2.2623036 0.078210324 -0.039512247
2.2477329 0.093029402 -0.039267913
2.2330475 0.10804157 -0.039023586
2.2222981 0.12230014 -0.038849056
2.2301989 0.12429658 -0.03898868
2.2193944 0.13768896 -0.038814154
2.2292769 0.13986328 -0.03898868
2.2173281 0.15388463 -0.038796701
2.2051744 0.16929276 -0.038604725
2.2132678 0.16835897 -0.038744342
2.196032 0.18324748 -0.038465105
2.1887245 0.19803432 -0.038360391
2.1873069 0.21311966 -0.038360387
2.1797001 0.22871152 -0.038255677
2.1838768 0.22722328 -0.038325485
2.1681139 0.24281032 -0.038081151
2.1723001 0.24135892 -0.038150962
2.1385665 0.25463071 -0.037592482
2.1546748 0.25464204 -0.037871722
2.0891676 0.26318216 -0.036754768
2.0894551 0.27656609 -0.036789671
2.0991724 0.27934456 -0.036964197
2.0159338 0.29696834 -0.035568006
2.028064 0.29694736 -0.035777435
2.0714269 0.29038277 -0.036510434
2.0895045 0.29105806 -0.03682458
2.0019538 0.30920354 -0.035358574
2.0140822 0.30927759 -0.035568006
1.9979126 0.32198197 -0.035323672
1.9898468 0.33405691 -0.035218958
1.9975004 0.33677667 -0.035358574
1.995345 0.34931985 -0.035358574
1.9951006 0.35071269 -0.035358574
1.9809909 0.36143625 -0.03514915
1.9705606 0.37376624 -0.035009526
1.9640126 0.38657182 -0.034939718
1.9614408 0.39941639 -0.034939718
1.968928 0.4027307 -0.035079334
1.9544032 0.41363919 -0.034869909
1.962518 0.41392547 -0.035009526
1.9475609 0.42641801 -0.034800097
1.9556731 0.42676273 -0.034939718
1.9427776 0.43871433 -0.034765191
1.932074 0.44960839 -0.034625575
1.9375229 0.45265806 -0.034730289
1.9288881 0.46308494 -0.034625575
1.9421732 0.46770954 -0.034869909
1.9293236 0.478174 -0.034695383
1.915282 0.48891073 -0.034503408
1.9060197 0.50074637 -0.034398694
1.9034874 0.51413524 -0.034416147
1.9017783 0.52794731 -0.034451053
1.8961709 0.54049557 -0.034416147
0.84932572 0.36859292 -0.01616093
0.85923809 0.36578721 -0.016300548
0.86259681 0.36810699 -0.016370358
0.85561144 0.37915474 -0.016335452
0.86000597 0.37412009 -0.016370358
0.82783425 0.38708153 -0.015951499
0.83751702 0.38521484 -0.016091119
0.84554082 0.38368151 -0.01620747
0.8613621 0.38098443 -0.016440166
0.83631611 0.39488202 -0.016143477
0.83833116 0.4068912 -0.016265644
0.84349048 0.40539402 -0.016335454
0.82470989 0.41415349 -0.016108572
0.8311671 0.41015664 -0.016178381
0.82473093 0.42366958 -0.016184198
0.81814623 0.43978959 -0.016213287
0.82384801 0.43546981 -0.016265642
0.83019102 0.43198639 -0.016335452
0.80648208 0.44447842 -0.016073667
0.81784385 0.44664413 -0.016265644
0.80986649 0.45689496 -0.016230738
0.81089455 0.45096764 -0.016195834
0.80548066 0.46723723 -0.016254008
0.81331867 0.46296144 -0.016335454
0.79440284 0.47293112 -0.01613766
0.79668826 0.48464587 -0.016277278
0.78454298 0.49539292 -0.016195834
0.79221177 0.49445179 -0.016300548
0.77128434 0.50126117 -0.016056214
0.7834608 0.50451785 -0.016265644
0.77663279 0.51677138 -0.016283095
0.78075856 0.51598972 -0.016335452
0.75835901 0.52413428 -0.016091119
0.76852012 0.52346307 -0.016230738
0.77489626 0.52295732 -0.016318001
0.75841922 0.53105104 -0.01616093
0.76296008 0.53502476 -0.016265644
0.77024555 0.53155535 -0.016335452
0.76428413 0.54354924 -0.016370356
0.74602181 0.55839312 -0.016265642
0.75311691 0.55555022 -0.016335452
0.7624867 0.55290073 -0.016440166
-1.2697884 -0.55502099 0.024189034
-1.2508274 -0.5384329 0.023770178
-1.2460645 -0.53432149 0.023665464
-1.2490294 -0.52735364 0.023665464
-1.2386135 -0.52117431 0.023456035
-1.2254966 -0.50586432 0.023141891
-1.2157283 -0.50332266 0.022967368
-1.1951246 -0.48504686 0.022513606
-1.1849532 -0.47550449 0.022286724
-1.1803916 -0.4680652 0.022164557
-1.1817663 -0.45908919 0.022129651
-1.1718891 -0.45690063 0.021955127
-1.1793357 -0.44869423 0.022024937
-1.169446 -0.44656813 0.021850415
-1.1653088 -0.43487877 0.021710794
-1.1624216 -0.42538616 0.021606078
-1.1519263 -0.41619885 0.021379199
-1.149585 -0.40190348 0.021257032
-1.1395032 -0.40643129 0.021117412
-1.1620318 -0.3964932 0.021431556
-1.1540483 -0.3951191 0.021291936
-1.1649299 -0.38470295 0.021414103
-1.1586072 -0.38788971 0.02132684
-1.1541446 -0.37589565 0.021187222
-1.1505758 -0.36741698 0.021082507
-1.1490543 -0.36560565 0.021047603
-1.1556524 -0.35338938 0.021094143
-1.1493571 -0.35798493 0.021012699
-1.1658676 -0.34490323 0.021222128
-1.1623071 -0.33570263 0.021117412
-1.1461242 -0.32439026 0.020791633
-1.1575685 -0.31558949 0.020942887
-1.1475389 -0.31436199 0.020768363
-1.1635303 -0.30618516 0.021001063
-1.156667 -0.29547575 0.020838173
-1.1464149 -0.28710872 0.020628745
-1.1404004 -0.27810514 0.020489125
-1.1540337 -0.26388529 0.020663649
-1.14791 -0.2637502 0.020558937
-1.1384223 -0.26921648 0.020419316
-1.1617051 -0.25711858 0.020768363
-1.1477714 -0.25529566 0.020524029
-1.1514373 -0.24789827 0.020558937
-1.1477857 -0.24585418 0.020489125
-1.1707164 -0.23371997 0.020838173
-1.1508651 -0.2310103 0.020489125
-1.1415172 -0.23681238 0.020349504
-1.1849048 -0.22355509 0.021047601
-1.1760094 -0.22752801 0.020907983
-1.1948186 -0.21390578 0.021187222
-1.179535 -0.21967877 0.020942887
-1.177539 -0.20439076 0.020861445
-1.1740953 -0.19279169 0.020768363
-1.1793475 -0.18531364 0.020838173
-1.1916288 -0.1708674 0.021012699
-1.1845057 -0.17808244 0.020907983
-1.1787274 -0.176162 0.020803269
-1.1774452 -0.16401561 0.02075091
-1.1810819 -0.15451564 0.020791633
-1.184104 -0.14392003 0.020820722
-1.2233024 -0.13571122 0.021483913
-1.2143561 -0.13470176 0.02132684
-1.2176881 -0.12229144 0.021361746
-1.2135342 -0.11332469 0.021274485
-1.221186 -0.10641059 0.02139665
-1.2133638 -0.10402226 0.021257032
-1.2149897 -0.096477419 0.021274485
-1.2218521 -0.085015148 0.021379199
-1.2166923 -0.087213755 0.021291936
-1.2217597 -0.070874408 0.021361746
-1.2184732 -0.075482875 0.021309387
-1.2322103 -0.062852234 0.02153627
-1.2261527 -0.063830905 0.021431556
-1.2275863 -0.054886088 0.021449007
-1.2349336 -0.046577998 0.021571174
-1.2451955 -0.039132047 0.021745699
-1.2353461 -0.033739824 0.021571174
-1.2416474 -0.020155801 0.02167589
-1.2355516 -0.025137153 0.021571174
-1.2517408 -0.013108674 0.021850415
-1.2437574 -0.011505476 0.021710794
-1.2797974 -0.0044672778 0.022339081
-1.2638037 -0.0030880659 0.022059841
-1.2637999 0.0044113561 0.022059841
-1.2557957 0.0056984257 0.021920223
-1.2857188 0.014810905 0.022443794
-1.2637383 0.013234234 0.022059841
-1.2845966 0.023094961 0.022426341
-1.2953876 0.032789722 0.022618318
-1.2834213 0.031365894 0.02240889
-1.303158 0.040953521 0.022757938
-1.2969899 0.045750946 0.022653222
-1.3064649 0.059097715 0.022827748
-1.2948035 0.050873104 0.022618318
-1.3260022 0.069028459 0.023176797
-1.3143927 0.060835548 0.022967368
-1.3339044 0.07107424 0.023316415
-1.6287943 0.098194748 0.028482327
-1.5929812 0.094082296 0.02785404
-1.6461599 0.10876055 0.028796472
-1.6540065 0.11130858 0.02893609
-1.6632349 0.12257804 0.029110614
-1.5344951 0.75174165 0.029826162
-1.5207593 0.7592172 0.029669091
-1.5197636 0.75673312 0.029634187
-1.5132159 0.76753414 0.029616734
-1.5051553 0.77670354 0.029564377
-1.4873714 0.78055453 0.029320043
-1.4756432 0.78775215 0.029197875
-1.4622674 0.79361582 0.029040804
-1.4536096 0.801112 0.028970996
-1.4492692 0.80069965 0.028901186
-1.461938 0.81905943 0.029250234
-1.4645666 0.82254827 0.029320043
-1.4700856 0.83716208 0.029529471
-1.4553149 0.83077043 0.029250234
-1.4716218 0.8525542 0.029686544
-1.4720435 0.86571568 0.029808709
-2.206625 0.17637759 0.038639627
-2.270839 0.20026977 0.039791487
-2.2765033 0.21519214 0.039913654
-2.2191558 0.49482018 0.039686773
-2.204221 0.50645393 0.039477345
-2.2153802 0.51146078 0.039686773
-2.1890478 0.51867962 0.039267913
-2.2000842 0.5241335 0.039477345
-2.1685374 0.53123891 0.038971223
-2.144748 0.53991693 0.038604725
-2.1402097 0.54155612 0.038534917
-2.119633 0.54935873 0.038220771
-2.1189606 0.5519473 0.038220771
-2.1086395 0.56362712 0.038098603
-2.088213 0.57401443 0.037801914
-2.0710921 0.58332795 0.03755758
-2.0627832 0.58331978 0.037417959
-2.0419967 0.59055007 0.037103817
-2.0356159 0.59101576 0.036999103
-2.0260057 0.60244101 0.036894388
-2.0121338 0.61382723 0.036719862
-2.0056174 0.62813777 0.036684956
-1.9968383 0.62271053 0.036510434
-1.9810133 0.63298404 0.036301006
-1.9726224 0.6329599 0.036161385
-1.9595531 0.64085948 0.035986863
-1.9492695 0.64013284 0.035812337
-1.9398614 0.64944482 0.035707623
-1.9390664 0.65181464 0.035707623
-1.9264796 0.66089433 0.035550553
-1.9152133 0.67201316 0.035428382
-1.8855934 0.67773986 0.034974623
-1.9014809 0.68082845 0.03525386
-1.8759049 0.68685478 0.034869909
-1.8695533 0.68675059 0.034765195
-1.8567739 0.69532812 0.034608122
-1.8453372 0.70577389 0.034485955
-1.8308023 0.71564072 0.034311432
-1.8239735 0.71113777 0.034171812
-1.8034735 0.71951318 0.033892576
-1.8152487 0.72237498 0.034102004
-1.7936136 0.72794622 0.033787858
-1.7891459 0.72831601 0.03371805
-1.776093 0.7364074 0.033560976
-1.6394565 0.7326777 0.031344522
-1.6252276 0.73666215 0.031146729
-1.5622743 0.73781657 0.030157758
-1.7663679 0.74669051 0.033473715
-1.6014655 0.74371636 0.030820951
-1.5652448 0.74089098 0.030227568
-1.5588878 0.74957156 0.030192664
-1.5492259 0.74659127 0.030018138
-1.7519311 0.75504422 0.033299193
-1.7261472 0.7591632 0.032915238
-1.7379291 0.76217401 0.033124667
-1.4816242 0.87309164 0.030018138
-1.492259 0.89239144 0.030349735
-1.5055659 0.91485995 0.030751141
-1.5145406 0.9346664 0.031065285
-1.5257679 0.95637059 0.031431783
-1.5351641 0.97706807 0.031763382
-1.5492997 1.0013283 0.032199688
-1.5704862 1.0292637 0.032775622
-1.5727502 1.0331033 0.03284543
-1.5882345 1.0568194 0.033299193
-1.5788087 1.0529342 0.033124667
-1.5912896 1.077384 0.033543523
-1.5891031 1.073478 0.033473715
-1.5980618 1.0958555 0.033822764
-1.6051533 1.1031914 0.033997286
-1.6184702 1.1261237 0.034416147
-1.6238512 1.1323931 0.034555767
-1.6334372 1.1535444 0.034904812
-1.6420218 1.1621858 0.035114244
-1.6539805 1.1867526 0.0355331
-1.6721557 1.2162308 0.036091577
-1.6644176 1.2132694 0.035951961
-1.685605 1.2452357 0.036580242
-1.7016929 1.2772025 0.037138719
-1.6968489 1.270329 0.036999103
-1.7120521 1.2999886 0.037522674
-1.7277352 1.3157048 0.037906628
-1.7375517 1.339061 0.038290579
-1.7406616 1.3448509 0.038395293
-1.7504548 1.3680968 0.038779248
-1.756652 1.3764014 0.03895377
-1.7736125 1.4097842 0.039547153
-1.767499 1.401404 0.039372627
-2.3227854 0.36726829 0.041048057
-2.316052 0.38383457 0.040978249
-2.3085601 0.38010961 0.040838633
-2.3157041 0.39791092 0.041013155
-2.3074043 0.39897272 0.040873535
-2.3047795 0.41386443 0.040873535
-2.3291259 0.43630514 0.041362204
-2.3118887 0.43057024 0.041048057
-2.3166797 0.44821921 0.041187681
-2.3202133 0.45100367 0.041257489
-2.296627 0.46203879 0.040890988
-2.2847443 0.47522774 0.040733919
-2.272584 0.47476768 0.040524486
-2.2500925 0.48443207 0.040175438
-2.2418509 0.48470503 0.040035821
-1.7958698 1.4459831 0.04024525
-1.8187743 1.484414 0.040978249
-1.8252194 1.4923288 0.041152775
-1.8432618 1.5270479 0.04178106
-1.8578176 1.5611047 0.04235699
-1.8789117 1.5996439 0.04307254
-1.8924478 1.61459 0.043421589
-1.9040225 1.6440884 0.043910254
-1.9174215 1.6591661 0.044259302
-1.9364214 1.6952083 0.044922493
-1.940658 1.70251 0.045062114
-1.9617573 1.7435691 0.045812566
-1.9853806 1.7876449 0.04663283
-1.9879616 1.7937416 0.046737548
-2.0112464 1.8365197 0.047540355
-2.0181737 1.8467242 0.047749784
-2.0379915 1.8872004 0.048482787
-2.0495384 1.9012176 0.048796929
-2.0757866 1.9492933 0.049704451
-2.081367 1.9579549 0.049878977
-2.1102662 2.008877 0.050856311
-2.1027238 2.0051975 0.050716694
-2.1393516 2.0652258 0.05190346
-2.1415 2.071636 0.052008174
-2.1691794 2.1234763 0.052985508
-2.1755195 2.1341484 0.053194933
-2.1997159 2.1836493 0.054102462
-2.2130227 2.2014649 0.054486416
-2.241183 2.2553091 0.055498652
-2.2539122 2.2736671 0.055882607
-2.2869377 2.3365693 0.057069369
-2.3234236 2.404295 0.058360845
-2.3301997 2.4172091 0.058605183
-2.359004 2.475467 0.059687231
-2.375267 2.4986379 0.060175899
-2.4101346 2.5647378 0.061432473
-2.4252298 2.5862229 0.061886236
-2.4669263 2.6621723 0.063352235
-2.4749985 2.6764996 0.063631475
-2.5211215 2.7590461 0.065237097
-2.5267997 2.7701089 0.065446526
-2.5714049 2.8538301 0.067052148
-2.5742621 2.8620205 0.067191765
-2.6342831 2.9639368 0.069216244
-2.6510808 2.9891346 0.069739819
-2.1989071 3.3526125 0.069984153
-2.1247799 3.3977177 0.069949247
-2.1029346 3.408932 0.069914341
-1.9720497 3.4033313 0.068657771
-1.9668884 3.4040072 0.068622865
-2.1010075 3.4124684 0.069949247
-1.9441731 3.4147301 0.068587959
-1.9159164 3.4169159 0.06837853
-1.8868171 3.419373 0.068169102
-1.9133136 3.4206653 0.068413429
-1.8564482 3.4291353 0.068064384
-1.8890212 3.4318578 0.06837853
-1.8628995 3.432462 0.068169102
-2.0577855 3.441035 0.069984153
-1.8370078 3.4418557 0.06809929
-2.0280681 3.4539962 0.069914341
-1.8377637 3.4505172 0.068238907
-1.8129344 3.4545968 0.06809929
-1.8136299 3.463263 0.068238907
-1.7956536 3.4827447 0.06839598
-2.6807437 3.0589542 0.070996389
-2.6696401 3.0527284 0.07078696
-2.653321 3.069566 0.070821866
-2.6579413 3.0814288 0.071031295
-2.6409061 3.0986693 0.071066193
-2.6596837 3.1273293 0.071659587
-2.6197994 3.1243675 0.071170911
-2.6320746 3.132339 0.071415246
-2.6053047 3.1481526 0.071327984
-2.5810454 3.1590407 0.071205825
-2.5797107 3.1652915 0.071275629
-2.5601823 3.17854 0.071240723
-2.55755 3.1832242 0.071275629
-2.5258887 3.1880205 0.070996389
-2.5354428 3.1932039 0.071170911
-2.5037367 3.2029078 0.070961483
-2.4761028 3.2129655 0.070804417
-2.4559085 3.2296846 0.070821866
-2.4513168 3.2306616 0.07078696
-2.4333029 3.2467501 0.070821866
-2.4275067 3.2460935 0.070752062
-2.4058249 3.2572248 0.07068225
-2.3982351 3.2528846 0.070542626
-2.3794596 3.2666438 0.070542626
-2.3695884 3.2614603 0.070368104
-2.352504 3.2762675 0.07040301
-2.3479273 3.2795489 0.07040301
-2.3313081 3.2962825 0.070472814
-2.3249745 3.2958605 0.07040301
-2.3030894 3.3063176 0.070333198
-2.3019085 3.3120117 0.07040301
-2.2719514 3.3181012 0.070193581
-2.2799506 3.3223155 0.070333198
-2.2431405 3.3255925 0.070019051
-2.2533429 3.3331807 0.070228487
-2.223366 3.3388453 0.070019051
-2.2259862 3.3491108 0.070193581
-2.201457 3.3628953 0.070158668
-2.180377 3.3742208 0.070123769
-2.1811767 3.3832245 0.070263386
-2.1510735 3.3882408 0.070053965
-2.1589143 3.3927343 0.070193581
-2.130929 3.4009459 0.070053965
-2.0827966 3.4282942 0.070019051
-2.0823152 3.4356036 0.070123769
-2.0582793 3.4500573 0.070123769
-2.0363464 3.4584079 0.070053965
