# .PCD v0.7 - Point Cloud Data file format
VERSION 0.7
FIELDS x y z
SIZE 4 4 4
TYPE F F F
COUNT 1 1 1
WIDTH 1426
HEIGHT 1
VIEWPOINT 0 0 0 1 0 0 0
POINTS 1426
DATA ascii
0.10839395 1.7773256 -0.21863361
0.096412107 1.7859677 -0.21960858
-0.21735688 2.3929706 -0.21021965
-0.23674002 2.4231629 -0.21300863
-0.25743723 2.4370797 -0.21440312
-0.23963626 2.4308865 -0.21370588
-0.25572681 2.4412665 -0.21475175
-0.27674782 2.4750626 -0.21788934
-0.2798 2.4827397 -0.21858659
0.64313537 0.80795294 -0.20073107
0.65052301 0.8070662 -0.20149431
0.64975822 0.81773645 -0.20302078
0.63433927 0.82727373 -0.20263916
0.6284337 0.83669251 -0.2034024
0.63321561 0.83061218 -0.20302078
0.64260197 0.8308304 -0.20416564
0.62637758 0.84557414 -0.20454726
0.62305409 0.85410869 -0.20550129
0.63045681 0.85232502 -0.20607373
0.60701984 0.86917245 -0.20607373
0.61425036 0.86326855 -0.20594652
0.62138885 0.86380005 -0.20683697
0.61075199 0.87614399 -0.20760021
0.60625005 0.88640213 -0.20874505
0.58515835 0.89695227 -0.20817262
0.59654886 0.89414763 -0.20893586
0.60584027 0.89381421 -0.2098899
0.59222281 0.9005456 -0.20950828
0.4223465 1.1999878 -0.20148762
0.42449886 1.203418 -0.20211335
0.41920525 1.2167693 -0.20383413
0.41154331 1.2214668 -0.20414701
0.39794582 1.2394567 -0.20618065
0.40621576 1.2326119 -0.2055549
0.39459956 1.2591696 -0.20899647
0.38739508 1.2655368 -0.2096222
0.18998903 1.6246451 -0.2008407
0.19094282 1.6205356 -0.20035322
0.18224697 1.6455055 -0.20327808
0.18167743 1.6535569 -0.20425305
0.17248237 1.670507 -0.20620294
0.16272585 1.6884379 -0.20827472
-0.1776548 2.2983387 -0.20167838
-0.19598706 2.3388376 -0.20533893
-0.19896181 2.354583 -0.20673342
-0.21866412 2.3888502 -0.20987104
0.73134899 0.64886618 -0.19004577
0.72267824 0.65850955 -0.19004577
0.73602003 0.66132116 -0.19233547
0.71406591 0.6792835 -0.19157225
0.70696497 0.68478274 -0.19131784
0.69543064 0.69834977 -0.19157225
0.70689583 0.69515932 -0.19271711
0.69909596 0.70301133 -0.19271709
0.68620211 0.71832007 -0.19309872
0.69426775 0.714176 -0.19360755
0.68201041 0.72499883 -0.19348033
0.69234914 0.72602284 -0.1950068
0.67511499 0.73675859 -0.19424357
0.68294168 0.73218817 -0.19462518
0.67555094 0.74830407 -0.19596085
0.68507218 0.74893665 -0.19729652
0.66482633 0.75392014 -0.19538842
0.67259812 0.75490832 -0.19653328
0.65550005 0.76722103 -0.19615164
0.66145903 0.76468736 -0.19653328
0.65464449 0.77824157 -0.19767812
0.66120034 0.77526164 -0.19805975
0.64461112 0.78784096 -0.19786894
0.65253353 0.78640091 -0.19863218
0.6603834 0.78367549 -0.19920459
0.64615387 0.80050129 -0.19996785
0.47333068 1.1156362 -0.19194511
0.48032653 1.1115664 -0.19178867
0.45921874 1.12472 -0.1924144
0.46800256 1.1243036 -0.19288373
0.45352775 1.1344759 -0.19350946
0.4623585 1.1341063 -0.19397876
0.44923902 1.1457345 -0.19491737
0.44714725 1.1645564 -0.19757676
0.45440012 1.1606852 -0.19742033
0.43442875 1.1788388 -0.19898467
0.44213605 1.1759697 -0.19898467
0.42667642 1.1848166 -0.19945396
0.43544427 1.1847799 -0.19992328
0.24609722 1.5347214 -0.19084741
0.23603988 1.5443333 -0.19182236
0.22722711 1.555686 -0.19304106
0.22728318 1.5637021 -0.19401602
0.21771999 1.5750828 -0.19523472
0.20939317 1.5862235 -0.19645341
0.22046198 1.584723 -0.19645341
0.20852584 1.5903419 -0.19694087
0.19888403 1.6035788 -0.1984033
0.20077537 1.6073444 -0.19889079
-0.10742812 2.1770248 -0.19069676
-0.12475227 2.2140174 -0.19400868
-0.14269309 2.2368915 -0.19610041
-0.14124152 2.2449691 -0.19679767
-0.15988103 2.2636926 -0.19854078
-0.15885666 2.2717535 -0.19923802
0.88324916 0.37619132 -0.18661121
0.87276363 0.38718233 -0.18559356
0.88580877 0.38020745 -0.18737444
0.85874212 0.39752245 -0.18393987
0.86493373 0.39344433 -0.18470311
0.87057102 0.39527538 -0.18584797
0.85647589 0.41828567 -0.18527554
0.86004376 0.41317189 -0.18546635
0.84464371 0.42666051 -0.18393987
0.85104507 0.42264777 -0.18470311
0.83686435 0.43750247 -0.18355827
0.84126675 0.43328109 -0.18393987
0.84343868 0.4418765 -0.18508473
0.83354217 0.45345521 -0.1844487
0.84836662 0.45146424 -0.18680201
0.82425332 0.46482238 -0.18393987
0.82668263 0.47510543 -0.18533914
0.81664926 0.4819288 -0.18432151
0.80615234 0.49556088 -0.18393987
0.80462766 0.50728559 -0.18489392
0.81407791 0.50141174 -0.18584797
0.80744475 0.51202488 -0.18584797
0.81766087 0.51053447 -0.18737444
0.79702073 0.53517216 -0.18661122
0.77835494 0.54845893 -0.18508473
0.78358829 0.54440379 -0.18546635
0.77779794 0.55602783 -0.18584797
0.78168917 0.55563283 -0.1864204
0.76837772 0.56566954 -0.18546635
0.77682972 0.56408846 -0.18661121
0.76573241 0.57252973 -0.18584797
0.77420378 0.57100099 -0.18699282
0.76603031 0.5851528 -0.18737444
0.75546783 0.59556127 -0.18699282
0.76477093 0.59643102 -0.1885193
0.77140737 0.59427851 -0.18928254
0.74792337 0.60500836 -0.18699282
0.75024468 0.60213506 -0.18699282
0.7467705 0.61264086 -0.18775606
0.73602283 0.62551904 -0.18775606
0.74633634 0.62547433 -0.18928254
0.73643112 0.63410234 -0.18890092
0.72592413 0.64314747 -0.1885193
0.71931785 0.65636724 -0.18928254
0.72388268 0.65132946 -0.18928254
0.71201438 0.66427398 -0.18928254
0.53031117 1.0066766 -0.18021253
0.526173 1.0155249 -0.18115114
0.51423645 1.0282511 -0.18208973
0.52444482 1.0252951 -0.18240261
0.51089311 1.0387292 -0.18334122
0.50565821 1.0478716 -0.18427983
0.49635333 1.0654008 -0.18615703
0.5034067 1.0620863 -0.18615703
0.49256444 1.0758544 -0.18740851
0.47482422 1.0967283 -0.18928573
0.30249792 1.4354563 -0.1801229
0.28294319 1.445507 -0.18085413
0.29302579 1.4434969 -0.18085413
0.27652156 1.4669547 -0.18329151
0.27065128 1.4922652 -0.18621637
0.26193082 1.5038965 -0.18743508
0.25319308 1.515456 -0.18865377
0.24350753 1.5270942 -0.18987246
-0.045257367 2.0576408 -0.18006375
-0.043186173 2.061671 -0.1804124
-0.060429342 2.0851564 -0.18250412
-0.05846839 2.0931849 -0.18320136
-0.074739426 2.1086161 -0.18459585
-0.091217384 2.1318989 -0.1866876
-0.089522868 2.1359589 -0.18703623
0.59092265 0.89754462 -0.17020072
0.59587955 0.90610617 -0.17176506
0.58582383 0.91145808 -0.17160863
0.59232491 0.91314656 -0.17239079
0.57657462 0.92432874 -0.17254724
0.58806241 0.92058897 -0.17301655
0.56984526 0.93428981 -0.17332941
0.56756645 0.94720888 -0.17489375
0.57724679 0.94828546 -0.17583236
0.56537163 0.95770758 -0.17614523
0.57246006 0.95348763 -0.17614523
0.55530775 0.96357 -0.17614523
0.54949063 0.97598499 -0.1773967
0.53778207 0.98923576 -0.17833532
0.54467511 0.98545718 -0.17833532
0.55250871 0.98335296 -0.17864819
0.54494882 0.9920646 -0.17927392
0.52776933 1.0035498 -0.17958678
0.34177145 1.3427824 -0.17012961
0.3357228 1.3586253 -0.1718358
0.3437638 1.3545651 -0.17159206
0.32760948 1.3677497 -0.17268887
0.32100475 1.3805267 -0.17402944
0.3074373 1.4100353 -0.17719805
0.30458874 1.4268869 -0.17914796
0.013248967 1.9465194 -0.17030232
0.011574981 1.950515 -0.17065094
-0.0012082915 1.9774461 -0.17300415
-0.014314214 2.0003078 -0.17500873
-0.016155675 2.0122485 -0.17605458
-0.028291211 2.0260627 -0.17727478
-0.030712776 2.0459535 -0.1790179
0.68808806 0.74124932 -0.16018891
0.67267752 0.75526202 -0.16018891
0.68110782 0.75300395 -0.16081464
0.66791129 0.76997131 -0.16144039
0.67221653 0.7649008 -0.16128394
0.65825176 0.77564651 -0.16112751
0.66454124 0.77287352 -0.16144039
0.65370387 0.78291887 -0.16154468
0.64865667 0.79137558 -0.16206612
0.6531083 0.79794294 -0.16331759
0.64532787 0.80550623 -0.16347402
0.65180677 0.80664003 -0.16425622
0.63564402 0.81358927 -0.16352616
0.64630103 0.81105804 -0.16425622
0.63295609 0.82400072 -0.16456908
0.62186754 0.83979297 -0.16550769
0.63173783 0.8348642 -0.16582055
0.6163556 0.8479138 -0.16602914
0.6248073 0.84253168 -0.16613342
0.63304907 0.84130639 -0.16675916
0.60717475 0.855326 -0.16613342
0.61238831 0.851601 -0.16613342
0.60707116 0.8698926 -0.16801062
0.61312938 0.86563319 -0.16801062
0.59612763 0.8798154 -0.16832352
0.60368097 0.87704909 -0.16863638
0.6125105 0.87573135 -0.16926211
0.6000697 0.8843025 -0.16926211
0.40455517 1.2468257 -0.1609488
0.39477915 1.2555122 -0.16159876
0.38745812 1.2629826 -0.16220811
0.38177267 1.2781854 -0.16379242
0.37507042 1.2843046 -0.16427989
0.37672308 1.2941616 -0.16549858
0.36450091 1.3072698 -0.16663603
0.37098363 1.3040758 -0.16647354
0.34719142 1.3290845 -0.16866718
0.35635483 1.3225456 -0.16817972
0.34912527 1.3326824 -0.16915466
0.088007346 1.8288894 -0.16019225
0.075892538 1.8453851 -0.16158675
0.063620061 1.863791 -0.16315556
0.052076317 1.8761083 -0.16420141
0.050537333 1.8920953 -0.1655959
0.039764427 1.9142733 -0.16751333
0.037995659 1.9262661 -0.16855921
0.026674017 1.9344263 -0.16925645
0.025088003 1.9424177 -0.16995369
0.87598443 0.38307264 -0.15142858
0.8623215 0.39899692 -0.15048997
0.84794635 0.42870033 -0.15048997
0.8453117 0.43387216 -0.15048997
0.83254838 0.45788661 -0.15048997
0.82640159 0.46888945 -0.15048997
0.83310461 0.46503428 -0.1511157
0.80970764 0.49716246 -0.15048997
0.81654 0.49354079 -0.1511157
0.80745339 0.5045529 -0.15080284
0.79551071 0.51957637 -0.15048997
0.81058276 0.51441157 -0.15205432
0.79314274 0.52676296 -0.15080284
0.80353928 0.52171701 -0.15174145
0.79262835 0.53463429 -0.15142858
0.79549098 0.54448056 -0.15268005
0.77451825 0.55716288 -0.1511157
0.78487229 0.55284631 -0.15205432
0.76864582 0.56524658 -0.1511157
0.773781 0.56156611 -0.15142858
0.78732324 0.56304491 -0.15330578
0.76077956 0.57579046 -0.1511157
0.77610421 0.5717755 -0.15268005
0.77643263 0.58455324 -0.15393153
0.75812179 0.59540546 -0.15268005
0.76533222 0.59258401 -0.15330578
0.75549531 0.60190976 -0.15299292
0.75609839 0.61534113 -0.15440084
0.73810393 0.62617892 -0.15330578
0.74370337 0.62566394 -0.15393151
0.75259966 0.62116802 -0.15455727
0.74292165 0.63878775 -0.155183
0.73029327 0.64724648 -0.15455727
0.72456563 0.65953535 -0.155183
0.73448706 0.65639091 -0.15601732
0.72499394 0.66491693 -0.15580875
0.71428668 0.68785369 -0.15706022
0.70958793 0.69269991 -0.15706022
0.70778704 0.70016915 -0.15768595
0.71010447 0.70344383 -0.15831171
0.68808699 0.71953845 -0.15768595
0.69584352 0.71755373 -0.15831171
0.70323122 0.71586359 -0.15893744
0.68575734 0.72719902 -0.15831171
0.69543993 0.72342658 -0.15893744
0.67250711 0.74480146 -0.15893744
0.68068278 0.74270499 -0.15956318
0.67057449 0.75184417 -0.15956318
0.46447879 1.1376029 -0.15087426
0.4565255 1.1408179 -0.15087426
0.46007669 1.1479492 -0.15184921
0.44461644 1.1561521 -0.15209295
0.45247549 1.1530992 -0.15209295
0.43984115 1.1664673 -0.1530679
0.43512338 1.1788211 -0.15428659
0.44022009 1.170567 -0.15355539
0.43683767 1.1866519 -0.15526156
0.43185997 1.1969173 -0.15623651
0.42547542 1.205519 -0.15696773
0.41528586 1.2164041 -0.15782082
0.42027685 1.2157456 -0.15794268
0.41219661 1.2226994 -0.15843016
0.40699524 1.2328054 -0.15940511
0.14337403 1.7254399 -0.15147668
0.1313224 1.7343916 -0.15217392
0.13298857 1.7402592 -0.15269686
0.12147872 1.7570779 -0.15409134
0.10979317 1.7798053 -0.15600878
0.11134537 1.7797089 -0.15600878
0.10002403 1.800336 -0.15775189
0.099323295 1.8163379 -0.15914638
0.81283695 0.48435616 -0.14986424
0.80286503 0.5007121 -0.14986424
0.79579568 0.51187319 -0.14986424
0.5187428 1.0189699 -0.1403935
0.52702379 1.0169477 -0.14063723
0.53411078 1.0132436 -0.14063723
0.54166722 1.0114766 -0.14088097
0.51410955 1.0257583 -0.14088097
0.52306134 1.0256813 -0.14136845
0.51694578 1.0332183 -0.14185593
0.51464599 1.0454402 -0.14307462
0.50459862 1.0561899 -0.14372458
0.51202595 1.0577641 -0.14429331
0.49683601 1.0649831 -0.14429331
0.49123001 1.0719495 -0.1447808
0.48655412 1.0806143 -0.145512
0.48304781 1.0952168 -0.14697444
0.4906821 1.0918176 -0.14697444
0.47437188 1.105478 -0.14770566
0.4870216 1.1021421 -0.1479494
0.46555662 1.1156827 -0.14843687
0.46504802 1.1266334 -0.14965557
0.21047282 1.5879939 -0.14014643
0.20960791 1.5921274 -0.14049506
0.2013979 1.6032276 -0.14136662
0.20070405 1.6113461 -0.14206386
0.19216126 1.6284376 -0.14345835
0.18257982 1.6445754 -0.14476569
0.17222711 1.6567094 -0.1457244
0.16184583 1.6777734 -0.14746751
0.16369671 1.6815975 -0.14781614
0.15338646 1.6985738 -0.14921063
0.15261404 1.7066449 -0.14990787
0.60763431 0.86859876 -0.13015647
0.62240052 0.86297965 -0.13064395
0.60117501 0.87308198 -0.13015647
0.59790874 0.88012588 -0.13064395
0.59556174 0.89723659 -0.13222826
0.60620856 0.8936857 -0.13259386
0.58515996 0.90602618 -0.13243137
0.57560736 0.91369528 -0.13259386
0.58117807 0.91016203 -0.13259386
0.56370783 0.93965298 -0.13454378
0.57269889 0.93419409 -0.13454378
0.58357346 0.93446857 -0.13527498
0.55795717 0.94307899 -0.13454378
0.5686183 0.94596618 -0.13551873
0.55735266 0.95724416 -0.13600621
0.56117123 0.95040286 -0.13551873
0.54935634 0.97554791 -0.13746862
0.5561536 0.97168893 -0.13746862
0.5644964 0.97146082 -0.13795611
0.53801227 0.9863748 -0.13795611
0.54541898 0.98456836 -0.13819985
0.53704429 0.9936704 -0.13868733
0.28589487 1.4585675 -0.13003637
0.27846467 1.4681165 -0.13073361
0.26834995 1.4780996 -0.13143085
0.27792335 1.4722745 -0.13108224
0.25939247 1.4877883 -0.1321281
0.2703549 1.4817849 -0.13177948
0.26137918 1.4914862 -0.13247673
0.25307518 1.5090816 -0.13387121
0.24495994 1.5225295 -0.1349171
0.24641792 1.5384388 -0.13631159
0.23664659 1.5419877 -0.1364859
0.22760694 1.5554304 -0.13753176
0.21893969 1.5727686 -0.13892625
-0.27853829 2.4930453 -0.13146794
-0.30128101 2.5266085 -0.13335203
-0.29816633 2.5229557 -0.13314268
-0.32232618 2.5622616 -0.13534079
-0.34358335 2.5957665 -0.1372249
-0.3469035 2.6033847 -0.13764358
-2.9513781 7.3417768 -0.13811834
-2.948688 7.3536315 -0.13829286
0.7269274 0.65671015 -0.12028505
0.7063362 0.68880367 -0.12113813
0.71088922 0.68410385 -0.12113813
0.69678187 0.69565374 -0.12089439
0.70457655 0.69626373 -0.12162561
0.68719906 0.70789754 -0.12113813
0.69290203 0.70510232 -0.12138188
0.69487017 0.71704996 -0.12260057
0.68449056 0.72560084 -0.1224787
0.69159663 0.72295731 -0.12284431
0.6736846 0.73429817 -0.12235683
0.68046612 0.73073322 -0.12260057
0.67019743 0.74016261 -0.12260057
0.66484678 0.75558174 -0.12357552
0.67466617 0.75616407 -0.12442861
0.68033153 0.7524097 -0.12455048
0.65575081 0.77652651 -0.12479421
0.64667523 0.78923994 -0.12528169
0.65216947 0.78470606 -0.12528169
0.66019112 0.78316921 -0.12576917
0.64507812 0.79395133 -0.12560667
0.65779662 0.79035372 -0.12625664
0.63806623 0.80129761 -0.12576917
0.63929462 0.8129825 -0.12698787
0.62288904 0.82810467 -0.1272316
0.63599372 0.82477188 -0.12788159
0.64485675 0.821235 -0.12820657
0.62217849 0.83441591 -0.12780033
0.63347286 0.83004779 -0.12820657
0.61888319 0.84590626 -0.12869403
0.62063462 0.84954399 -0.12918152
0.60871249 0.85812664 -0.12918152
0.61700809 0.85707819 -0.12966898
0.61176097 0.86083138 -0.12966898
0.35484052 1.3364036 -0.12097216
0.34328368 1.3497092 -0.12184373
0.35438052 1.3488983 -0.12201804
0.34544757 1.3532699 -0.12219235
0.33803213 1.3664322 -0.12315106
0.33024481 1.3734589 -0.12358684
0.32336241 1.387373 -0.12463271
0.33114371 1.3814391 -0.12428409
0.32464767 1.397302 -0.12550427
0.317862 1.4070327 -0.12620151
0.30923921 1.4171112 -0.12689877
0.3177557 1.4111416 -0.12655014
0.30110759 1.4270072 -0.12759601
0.29335639 1.4367558 -0.12829326
0.29289562 1.4409164 -0.12864187
0.28639764 1.4544077 -0.12968774
-0.1778405 2.3059785 -0.12121009
-0.17613189 2.3101158 -0.12141944
-0.19620673 2.3365586 -0.12288483
-0.19490702 2.3406758 -0.12309418
-0.21401775 2.3630719 -0.12435023
-0.23218352 2.3894513 -0.12581564
-0.23602259 2.4071374 -0.1267577
-0.25341421 2.4314752 -0.12811844
-0.25762239 2.4511163 -0.12916516
0.86795837 0.37848014 -0.11626337
0.87755173 0.37630069 -0.11723832
0.87450391 0.3857823 -0.11736019
0.8633886 0.3935903 -0.11650709
0.85291493 0.41581029 -0.1165071
0.84673667 0.42382181 -0.11626336
0.85747516 0.42453548 -0.11748206
0.84439778 0.43284467 -0.1165071
0.85449022 0.43051183 -0.11748206
0.83636308 0.44395444 -0.11626336
0.82501185 0.45655054 -0.11577588
0.83504659 0.45338908 -0.1166696
0.82310057 0.46404591 -0.11601963
0.81881964 0.47552142 -0.11626336
0.82887596 0.47797352 -0.11748206
0.80857867 0.48892134 -0.11601962
0.8121407 0.4829812 -0.11601962
0.82251352 0.48102373 -0.11699458
0.81231856 0.49040866 -0.1165071
0.80631304 0.50521535 -0.11683208
0.79456067 0.5162527 -0.11634461
0.80321461 0.5125916 -0.11699458
0.78757596 0.52565384 -0.11626336
0.79401231 0.52674168 -0.11699458
0.7936151 0.53801793 -0.1177258
0.77775466 0.54701996 -0.11675084
0.78534651 0.54190254 -0.11715707
0.76356953 0.5699771 -0.11699458
0.7743113 0.56656772 -0.11780704
0.75957167 0.57529396 -0.11699458
0.76324069 0.57702488 -0.11748206
0.77043414 0.57405454 -0.11796954
0.75893915 0.58267069 -0.11748206
0.75534612 0.59375793 -0.11796954
0.76085889 0.59316599 -0.11845701
0.74585074 0.60354275 -0.11780704
0.75302929 0.60307461 -0.11845701
0.74098843 0.61366051 -0.11813203
0.73526627 0.62664151 -0.11861951
0.74904478 0.62674338 -0.11991944
0.73486465 0.63119119 -0.1189445
0.72530776 0.64215022 -0.1189445
0.71461755 0.65989226 -0.11943197
0.72067481 0.65622371 -0.1196757
0.71293145 0.66364866 -0.11959445
0.70420974 0.67673045 -0.11991944
0.43772489 1.1849083 -0.11051348
0.44650018 1.1816295 -0.11051348
0.42312849 1.1965405 -0.11103641
0.43079537 1.1916832 -0.11086211
0.41724506 1.2049321 -0.11155935
0.42030761 1.216522 -0.11260521
0.41350621 1.2230575 -0.11295383
0.39862034 1.2363663 -0.11365108
0.40473047 1.2336739 -0.11359298
0.39210021 1.2447175 -0.11417402
0.37927806 1.2674131 -0.11574282
0.3875325 1.2628297 -0.11556852
0.3752771 1.2841787 -0.11705016
0.38461739 1.2803723 -0.116963
0.36832434 1.2934424 -0.11766025
0.36198366 1.3035043 -0.11835749
0.36297181 1.3115005 -0.11905474
0.35703224 1.3213871 -0.11975199
-0.071998201 2.1038797 -0.1103242
-0.074906208 2.1237631 -0.11137092
-0.090405717 2.1391523 -0.1122083
-0.088412412 2.1452324 -0.11252232
-0.15694636 2.2614496 -0.11880264
-0.15922336 2.2713013 -0.119326
0.5202648 1.0184388 -0.10005479
0.51448226 1.0258319 -0.10040341
0.52299476 1.0259929 -0.10075203
0.50745183 1.0352418 -0.10086825
0.50086236 1.0524442 -0.10197222
0.49687731 1.0631349 -0.10266946
0.4857004 1.0792214 -0.10354102
0.49276829 1.0738206 -0.10336671
0.47976407 1.0862309 -0.10388964
0.4880915 1.0825145 -0.10388964
0.47533801 1.0968663 -0.10458689
0.48555169 1.0967426 -0.10493552
0.47788262 1.1001059 -0.10493552
0.47292745 1.110912 -0.10563275
0.47169533 1.1287307 -0.10702725
0.46682537 1.1393708 -0.1077245
0.45456654 1.14431 -0.1077245
0.4639411 1.1448416 -0.10807312
0.4473637 1.1599736 -0.10877036
0.45318606 1.1534311 -0.10842174
0.44798508 1.1640046 -0.10911899
0.44265842 1.1745614 -0.10981624
0.026740815 1.9271693 -0.1010084
0.014259052 1.945278 -0.10195045
0.012601195 1.9512815 -0.10226447
0.00069088227 1.9792837 -0.10372987
-0.0010383558 1.983278 -0.10393922
-0.013893116 2.0151863 -0.10561397
-0.029012106 2.0270104 -0.10624201
-0.027296983 2.0310292 -0.10645135
-0.043040745 2.0547285 -0.10770741
-0.056856021 2.0743732 -0.10875413
-0.059255388 2.0822983 -0.10917282
0.63657707 0.80981755 -0.090119034
0.64650708 0.80957574 -0.090641975
0.61875689 0.83346051 -0.090816282
0.62485862 0.83511901 -0.091252059
0.61527175 0.84426212 -0.091397323
0.60512698 0.85685146 -0.091774993
0.61370814 0.86420995 -0.092733704
0.59562814 0.87676889 -0.092733704
0.60365975 0.87489188 -0.092995182
0.61451274 0.87826854 -0.093779579
0.58723867 0.88958097 -0.093256645
0.59417558 0.88255405 -0.093082331
0.58786958 0.89155161 -0.093430951
0.57965827 0.90638638 -0.094128199
0.58675027 0.90299988 -0.094215363
0.57590926 0.91818839 -0.094825447
0.58351433 0.91101503 -0.09465114
0.56417769 0.93709654 -0.095697001
0.55552375 0.94686747 -0.096045621
0.56354827 0.94443631 -0.096219935
0.55271661 0.95542037 -0.096568555
0.54674196 0.97031063 -0.097440116
0.53881764 0.98723555 -0.098398827
0.54381841 0.98107433 -0.098137364
0.53379834 0.99448329 -0.098747447
0.52438974 1.0043412 -0.099125125
0.14253329 1.7117187 -0.090017848
0.13330363 1.7284882 -0.090855226
0.12234978 1.7453157 -0.091692604
0.13270546 1.7405528 -0.091483258
0.12165433 1.7573768 -0.092320636
0.11114916 1.7740819 -0.093158014
0.098867878 1.7908115 -0.093995392
0.10043052 1.7907246 -0.093995392
0.088078469 1.8073715 -0.094832763
0.077248834 1.8278577 -0.09587948
0.075499266 1.8319287 -0.096088827
0.064544469 1.8623245 -0.097658902
0.052368801 1.886683 -0.098914966
0.040398538 1.8969661 -0.099438325
0.038905431 1.9049879 -0.099857017
0.87997776 0.36936674 -0.0834952
0.86658776 0.38528603 -0.082972266
0.87261176 0.38396874 -0.083408043
0.88413483 0.38498318 -0.084366761
0.86414963 0.39072382 -0.082972266
0.85660517 0.40931377 -0.083059423
0.86304855 0.40501767 -0.083408043
0.8555184 0.41615555 -0.083233729
0.84614027 0.42611918 -0.082885109
0.85013413 0.42034692 -0.082972266
0.84077442 0.43442971 -0.082797959
0.85274476 0.43731084 -0.083843827
0.83115447 0.44417542 -0.082449332
0.84409392 0.44315529 -0.083408043
0.82590675 0.4559212 -0.082536489
0.83504111 0.45793024 -0.083320886
0.82845485 0.46567613 -0.083146572
0.83062804 0.46994647 -0.0834952
0.8237077 0.47403407 -0.083146572
0.80882239 0.48752838 -0.082623646
0.8145231 0.48382133 -0.082885109
0.82234895 0.48034981 -0.083320886
0.81349015 0.4951933 -0.083320886
0.8056919 0.50403833 -0.083146572
0.8189925 0.50148612 -0.084018134
0.8028295 0.5160014 -0.0834952
0.79600638 0.52646607 -0.0834952
0.8058815 0.52594936 -0.084192447
0.79125297 0.53179955 -0.083408043
0.80219036 0.53156227 -0.084192447
0.77951425 0.54016399 -0.082972266
0.78316808 0.54188699 -0.083320886
0.77410674 0.55645293 -0.083408043
0.78401685 0.55341709 -0.083960034
0.76904291 0.56512451 -0.0834952
0.77633238 0.56527328 -0.084018141
0.76835614 0.57606828 -0.084018141
0.77306473 0.57643497 -0.084366761
0.75296366 0.58637732 -0.0834952
0.76603925 0.58737743 -0.084453911
0.77061051 0.58302003 -0.084541067
0.75641423 0.59381479 -0.08413434
0.75072944 0.60522968 -0.084366754
0.74924058 0.61652929 -0.084889688
0.75249684 0.6156925 -0.085064009
0.73446453 0.62640202 -0.084453911
0.7439906 0.62130153 -0.084802538
0.73045355 0.63564545 -0.084715381
0.72639781 0.64627945 -0.085064001
0.74041122 0.64544749 -0.085935563
0.7158336 0.65501368 -0.084889695
0.72630173 0.65534371 -0.085586935
0.73783499 0.65140516 -0.086109869
0.71786761 0.66603768 -0.085674092
0.7170704 0.67999929 -0.086458497
0.72180027 0.67497665 -0.086458497
0.70668304 0.68363476 -0.08602272
0.70433223 0.69602227 -0.086632803
0.69864261 0.70453155 -0.086807117
0.7050854 0.70656377 -0.087330058
0.68424726 0.71439803 -0.086545646
0.69401276 0.71466792 -0.087155744
0.70063192 0.71098 -0.087330058
0.6850822 0.72597522 -0.087330058
0.67487878 0.73547012 -0.087330058
0.6843878 0.73481917 -0.087852992
0.67553061 0.74566042 -0.088027291
0.68091404 0.74074787 -0.088027291
0.6624856 0.7519716 -0.087678678
0.670636 0.75006574 -0.088027291
0.65520161 0.77230865 -0.088608332
0.66269517 0.77290708 -0.089073166
0.67001635 0.77185357 -0.089421786
0.64475548 0.78535807 -0.088898852
0.6437124 0.79520547 -0.089508951
0.63605088 0.80769646 -0.089944728
0.64097297 0.80379593 -0.089944728
0.26416796 1.5089486 -0.080283366
0.25498247 1.5155914 -0.080545045
0.24595815 1.5261862 -0.081016071
0.23666494 1.5367492 -0.081487089
0.22936824 1.5570368 -0.082481474
0.22885987 1.5611488 -0.08269082
0.22070995 1.5744236 -0.083318852
0.22071511 1.5824895 -0.083737537
0.21231687 1.5997574 -0.084574915
0.20288482 1.6150727 -0.085307613
0.19280541 1.6253581 -0.085778639
0.18316276 1.6355172 -0.086249664
0.18283907 1.6456016 -0.086773023
0.1734084 1.6526468 -0.087087035
0.17361973 1.6686897 -0.087924413
0.16385689 1.6817172 -0.088552445
0.1533072 1.6927392 -0.089075804
0.14322682 1.7056481 -0.089703836
2.9787681 -3.4278889 -0.079268835
2.9667208 -3.4092145 -0.078884877
0.36992046 1.2943283 -0.070548877
0.37838084 1.2939614 -0.070653543
0.37207389 1.3061757 -0.071176901
0.355937 1.3168727 -0.071490929
0.36512154 1.3143559 -0.071490929
0.34887978 1.3270222 -0.071909606
0.33463463 1.3471555 -0.072746992
0.34187111 1.3412153 -0.072537638
0.3375358 1.362898 -0.073584363
0.32565552 1.3760413 -0.074107721
0.33083686 1.3727587 -0.074003048
0.31404042 1.3889869 -0.07463108
0.32330465 1.3827579 -0.074421734
0.3067759 1.3987894 -0.075049765
0.30725983 1.4068617 -0.075468451
0.30031687 1.4165277 -0.075887144
0.30155584 1.4285144 -0.076515175
0.29237333 1.434499 -0.076724522
0.28592637 1.4480147 -0.077352546
0.29602915 1.4459832 -0.077352546
0.27685407 1.4589255 -0.077823579
0.28581831 1.4541429 -0.077666566
0.26891723 1.4695474 -0.078294598
0.26870817 1.4756763 -0.078608617
0.26176339 1.4890928 -0.079236642
0.53010505 1.0187572 -0.060186356
0.51146847 1.0371553 -0.060605045
0.50512326 1.0402604 -0.060605045
0.51310843 1.0585854 -0.061651766
0.49997005 1.0692648 -0.061861105
0.50693607 1.0637678 -0.061756436
0.48593131 1.0757174 -0.061861105
0.49286759 1.072557 -0.061861105
0.50241137 1.0725327 -0.062070452
0.48846352 1.0833396 -0.062279794
0.48488545 1.0936905 -0.062698483
0.48716199 1.1014198 -0.063117169
0.47701615 1.1188905 -0.063745201
0.48322374 1.1118696 -0.063535862
0.46899763 1.1222752 -0.063745201
0.47055238 1.1237898 -0.063849874
0.46419656 1.1318285 -0.064111553
0.4605808 1.1451536 -0.064687252
0.4556303 1.1578707 -0.065210611
0.4441829 1.1644399 -0.065315276
0.43629646 1.1791456 -0.065890975
0.44538376 1.1768113 -0.065943316
0.45194441 1.1700261 -0.065733969
0.43213242 1.1934309 -0.066519007
0.41870722 1.2098373 -0.067094706
0.42656428 1.2039115 -0.0669377
0.41195053 1.2142639 -0.067199372
0.42020622 1.2114317 -0.067199372
0.40523607 1.2238871 -0.067565724
0.40110904 1.2388988 -0.068246089
0.4020851 1.2448804 -0.068560109
0.39698851 1.2590859 -0.06918814
0.38796854 1.2618945 -0.06918814
0.39476293 1.263963 -0.069397487
0.38239759 1.2729809 -0.069659159
0.37557417 1.2802154 -0.069920845
0.88447583 0.37753323 -0.050399527
0.86741316 0.39878213 -0.050033178
0.87354124 0.39497024 -0.050242521
0.85571867 0.42329451 -0.050033178
0.81371564 0.51440984 -0.050451867
0.78876156 0.53785497 -0.050033178
0.78710455 0.54379851 -0.050137851
0.76579475 0.5734092 -0.050137851
0.75980341 0.58133394 -0.050137851
0.7537061 0.59406942 -0.050294861
0.74641395 0.60795414 -0.050451864
0.75427318 0.60299224 -0.050608873
0.72472292 0.63668495 -0.050556537
0.73386407 0.63226336 -0.050765883
0.74541849 0.6310432 -0.051184569
0.72252584 0.64669538 -0.05081822
0.72316927 0.65642226 -0.051184572
0.70720613 0.66923881 -0.051027562
0.71544248 0.6648286 -0.051184569
0.72332674 0.66513336 -0.051498584
0.70172858 0.68216306 -0.051289242
0.69588709 0.69661641 -0.051603258
0.70452964 0.69500279 -0.051864937
0.71127009 0.69240493 -0.052021943
0.68887621 0.70912981 -0.051812604
0.69189352 0.70617819 -0.051812604
0.70343584 0.70319051 -0.052126616
0.68868047 0.71764755 -0.052126616
0.68683267 0.72630388 -0.052388296
0.69219863 0.72257543 -0.052440636
0.66920066 0.73854345 -0.052231289
0.67395329 0.73600882 -0.052301068
0.68676925 0.73595458 -0.052754648
0.66740549 0.75622475 -0.052859318
0.67347461 0.75350583 -0.052963994
0.64681315 0.78688192 -0.05338268
0.65329534 0.78411001 -0.053487353
0.64283723 0.79270649 -0.053487353
0.63615197 0.80189896 -0.053644359
0.63926572 0.81090504 -0.054115385
0.62852269 0.82177585 -0.054220054
0.63820434 0.82187915 -0.054534074
0.62308931 0.83837879 -0.054743413
0.63162422 0.83697736 -0.054952759
0.62311542 0.84332323 -0.054952759
0.61804956 0.85568893 -0.055319108
0.62430215 0.8523761 -0.055371448
0.59973007 0.86741304 -0.055266771
0.60432351 0.86178076 -0.055162102
0.61334711 0.86274439 -0.055476118
0.59703249 0.87653124 -0.055580791
0.60366285 0.87440628 -0.055685461
0.59312421 0.88399512 -0.055790137
0.6009137 0.88355362 -0.05599948
0.59087449 0.89508879 -0.056208819
0.60140049 0.89768302 -0.056627508
0.58350837 0.90624291 -0.056487948
0.59376329 0.90513492 -0.056732181
0.57839054 0.917404 -0.056836855
0.57448101 0.92456323 -0.057046197
0.56460893 0.937626 -0.057360217
0.5732255 0.93706888 -0.057569556
0.55607712 0.95428711 -0.057883576
0.54662478 0.96891612 -0.058302261
0.55180794 0.96137035 -0.058092915
0.54526651 0.97577888 -0.058581386
0.53394455 0.99413562 -0.059139632
0.5295561 1.0010016 -0.059348982
0.52232271 1.0167789 -0.059907228
0.53445303 1.0119678 -0.05997701
0.51403546 1.0224903 -0.05997701
0.86407566 0.38679117 -0.049614493
0.8653205 0.39855203 -0.049928509
0.85633832 0.40363142 -0.049614493
0.84739101 0.42656377 -0.049719162
0.85133219 0.42761752 -0.049928509
0.83711499 0.43568036 -0.049457483
0.84280288 0.43119109 -0.049614493
0.82712954 0.45503342 -0.049474929
0.83874542 0.45180681 -0.049928509
0.82479608 0.46266109 -0.049562156
0.81574774 0.47248495 -0.049405146
0.82082599 0.47965235 -0.049823835
0.80900371 0.48782972 -0.04950982
0.8143453 0.48538461 -0.049684275
0.80567843 0.49710256 -0.049614489
0.79592967 0.51441419 -0.049666829
0.80215007 0.51398301 -0.049928509
0.78607464 0.52516729 -0.049544711
0.78299499 0.53742909 -0.049771499
0.77450669 0.54786593 -0.049719162
0.78001839 0.54698688 -0.049928509
0.77248508 0.55528718 -0.04985873
0.76602173 0.56641233 -0.049928509
0.76015317 0.57427382 -0.049928509
-0.1927269 2.3096199 -0.040454678
-0.2098648 2.3422589 -0.041048057
-0.21263051 2.3500412 -0.041187681
-0.23119567 2.3814392 -0.041763611
-0.25143826 2.4145737 -0.04237444
-0.27077162 2.4486997 -0.043002732
-0.29276687 2.4884555 -0.043735731
-0.31928074 2.5416343 -0.044713065
-0.34456405 2.6049099 -0.045864925
-0.36930957 2.6580582 -0.046842258
-0.37301224 2.6676373 -0.047016785
0.087505013 1.7955953 -0.031379428
0.077702865 1.8160617 -0.031728476
0.076051325 1.8221359 -0.03183319
0.014328203 1.9316525 -0.03371805
0.0011929343 1.953702 -0.034102004
-0.042277396 2.0352509 -0.035533097
-0.055634689 2.0829399 -0.036370814
-0.07284268 2.0964155 -0.036615148
-0.087245494 2.1168799 -0.03698165
-0.11928383 2.1743991 -0.038011342
-0.12124543 2.1823018 -0.038150962
-0.13668357 2.209439 -0.038639627
-0.13847671 2.2133346 -0.038709439
-0.15350024 2.2343924 -0.03909339
-0.17211618 2.2731464 -0.039791487
-0.17471056 2.2809706 -0.039931107
0.22758621 1.5430695 -0.027225755
0.15237746 1.6808504 -0.029459663
0.14309362 1.6987242 -0.029756352
0.88164896 0.38701636 0.016806668
0.87349892 0.39789313 0.016754311
0.85930473 0.42768538 0.016754311
0.84357727 0.4494831 0.016684501
0.84419507 0.45537439 0.016742675
0.83897102 0.46218204 0.016719406
0.82582361 0.48528337 0.016719406
0.81329101 0.50978142 0.016754311
0.80654866 0.52038318 0.016754311
0.78484476 0.56293023 0.016859025
0.74863833 0.62907344 0.017068453
0.72931308 0.65736818 0.017138263
0.73537922 0.65358895 0.017173167
0.72959906 0.66598207 0.017242977
0.6949923 0.7243517 0.017522216
0.67600346 0.75378293 0.01767347
0.65693116 0.79310679 0.01797598
0.65425718 0.80048609 0.018045789
0.63995808 0.81704938 0.018115599
0.64715767 0.81519186 0.018167956
0.63883722 0.82805175 0.018255217
0.64170778 0.82075858 0.018185407
0.63425124 0.83408332 0.018290123
0.62566155 0.84676969 0.018377382
0.63186365 0.84340155 0.018394835
0.61697286 0.85599214 0.018418105
0.61112928 0.86344904 0.018464647
0.59861326 0.88548017 0.018656623
0.60478044 0.88127953 0.018656623
0.59246546 0.89400047 0.018720616
0.58683258 0.90884268 0.018883504
0.59072417 0.91347063 0.018988218
0.57550848 0.92548215 0.019023122
0.58488095 0.92353505 0.019081296
0.57372963 0.93715334 0.019180194
0.55416977 0.95695317 0.019302363
0.56392926 0.95355248 0.019337267
0.55143523 0.96774852 0.019441981
0.54802454 0.976569 0.019546695
0.54226804 0.98434579 0.019616505
0.55108106 0.98402548 0.019686313
0.53146642 0.99702275 0.019721219
0.54367155 0.99649119 0.019814299
0.52855766 1.0076091 0.019860838
0.53498805 1.0019436 0.019825934
0.52570993 1.0181086 0.020000458
0.52940041 1.0274552 0.020174982
0.50707012 1.0364317 0.020140078
0.51688361 1.0371612 0.020227339
0.52447361 1.0344648 0.020244792
0.50159717 1.0413113 0.020174982
0.5104332 1.0414644 0.020244792
0.50606906 1.0524746 0.020384412
0.50372267 1.0646713 0.020558937
0.49425617 1.0745976 0.020646196
0.5063951 1.0722555 0.020698555
0.48725364 1.0887604 0.020820722
0.49385998 1.0846814 0.020803269
0.48203421 1.0965446 0.020907983
0.47832674 1.1090641 0.021082507
0.4858959 1.1079527 0.021117412
0.46682295 1.1247883 0.021257032
0.47407627 1.1217504 0.021257032
0.45215803 1.1350693 0.02132684
0.46452054 1.135823 0.02141992
0.45619756 1.1463753 0.02153627
0.4513922 1.1568662 0.02167589
0.4376924 1.1706619 0.021815507
0.44570199 1.1733357 0.021908589
0.43346232 1.1828892 0.021990031
0.42789161 1.1934166 0.022129651
0.42338553 1.2056249 0.022304177
0.42651135 1.2172433 0.022513606
0.41929913 1.2239748 0.022583414
0.42015287 1.223682 0.022583414
0.39708859 1.2397615 0.022723034
0.40468094 1.2351998 0.022688128
0.41392928 1.2342408 0.022723034
0.3965365 1.2546196 0.022967367
0.39566982 1.2695695 0.023211701
0.38679695 1.2723008 0.023211701
0.39046362 1.2795458 0.023351319
0.37255639 1.2869556 0.023386225
0.38085008 1.2824397 0.023351319
0.36684173 1.2989888 0.023560748
0.36679232 1.3031582 0.023630559
0.36094496 1.3130872 0.023770178
0.36402574 1.3288307 0.024049416
0.34667283 1.337595 0.024119226
0.35532033 1.3311849 0.024049416
0.33904371 1.3477986 0.024258846
0.34441614 1.3443627 0.02422394
0.33389723 1.3645278 0.024520632
0.328749 1.3853095 0.024852227
0.32110745 1.3953098 0.024991846
0.31309658 1.4053252 0.025131466
0.30550838 1.4172242 0.025305988
0.29704362 1.4231085 0.0253758
0.29824296 1.4351141 0.025585229
0.29105034 1.4447505 0.025724847
0.29136232 1.4528466 0.025864467
0.28273049 1.4626988 0.026004087
0.2749854 1.4743464 0.02617861
0.28553158 1.4703034 0.026143704
0.26780584 1.489892 0.026422944
0.25875798 1.4996077 0.026562562
0.26650491 1.4901253 0.026422944
0.25906494 1.5076712 0.026702182
0.25166345 1.5251405 0.026981421
0.24364012 1.5426407 0.027260659
0.23337954 1.5523155 0.027400278
0.22560382 1.5655876 0.027609706
0.23593087 1.56002 0.027539898
0.21629755 1.5790118 0.027819136
0.22564691 1.5736625 0.027749326
0.21707688 1.5950513 0.028098376
0.20863929 1.6042433 0.028237993
0.19914377 1.626605 0.028604494
0.18915828 1.6449074 0.028901186
0.19059357 1.6447417 0.028901186
0.17852913 1.6541402 0.029040804
0.18040434 1.6579601 0.029110614
0.16898285 1.6752427 0.029389855
0.17004056 1.6711154 0.029320043
0.15987812 1.6881881 0.029599281
0.1595249 1.7002728 0.029808709
0.14898805 1.7132722 0.030018138
0.15083298 1.7171257 0.03008795
0.13891947 1.7341799 0.030367188
0.14013006 1.7340825 0.030367188
0.12903254 1.7549949 0.030716237
0.11807758 1.7637829 0.030855855
0.11706577 1.7718667 0.030995475
0.10707722 1.7865214 0.031239808
0.10634438 1.8005877 0.031484142
0.095290594 1.8152237 0.031728476
0.082453027 1.8298645 0.031972811
0.084645405 1.8357698 0.032077521
0.071091563 1.8463504 0.032252047
0.059707657 1.8687617 0.032636002
0.058325388 1.876808 0.032775622
0.047639269 1.8951128 0.033089764
0.034989364 1.9273889 0.033648241
0.033375673 1.9314176 0.03371805
0.020948425 1.9515902 0.034067098
0.0082417857 1.9676831 0.034346335
0.0065380214 1.971689 0.034416147
-0.00555128 1.9876895 0.034695383
-0.0072994698 1.9916832 0.034765195
-0.019445678 2.0255983 0.035358574
-0.035142388 2.0543864 0.035864696
-0.051173922 2.0790536 0.036301006
-0.048902623 2.0751078 0.036231197
-0.065189488 2.0976675 0.036632601
-0.081753701 2.1281059 0.037173625
-0.079375908 2.1241939 0.037103817
-0.096353628 2.1635256 0.037801914
-0.13149738 2.2297857 0.03898868
-0.14870727 2.2567613 0.039477345
0.87539119 0.37591693 0.049928509
0.85535359 0.39631468 0.04940515
0.86159796 0.39228997 0.049614493
0.84693748 0.41399515 0.049405146
0.8531937 0.41024762 0.049614493
0.84526545 0.42411166 0.049562156
0.83312649 0.43684518 0.049300473
0.82878017 0.44924241 0.04940515
0.83205068 0.44315547 0.049405146
0.82578242 0.45472902 0.04940515
0.83611971 0.45246595 0.049823835
0.82258785 0.46048278 0.04940515
0.81363809 0.47412378 0.04935281
0.8087377 0.48632663 0.049457483
0.81818116 0.48021629 0.049719162
0.79946029 0.49955827 0.04940515
0.79719758 0.50689334 0.04950982
0.79470313 0.51263964 0.049562156
0.78551644 0.52480483 0.049509823
0.79550785 0.52056593 0.049823835
0.78405648 0.53765887 0.049823835
0.77702904 0.54428399 0.049719162
0.76961654 0.55357641 0.049684271
0.76095325 0.56988758 0.049823835
0.75810301 0.57532698 0.049876172
0.7527715 0.58390951 0.049928509
-0.16613106 2.2896311 0.040070724
-0.1678755 2.2915092 0.04010563
-0.18456143 2.3243287 0.040699009
-0.20539758 2.3667421 0.041466914
-0.22469586 2.3971252 0.042025398
-0.24543586 2.4352903 0.042723492
-0.26499978 2.4674325 0.043316875
-0.2680127 2.4751527 0.043456491
-0.28699374 2.5072439 0.044049874
-0.31323895 2.5585036 0.044992302
-0.33499718 2.5970845 0.045707852
-0.35780612 2.6394525 0.04649321
-0.36146224 2.6490459 0.046667732
-0.38092643 2.6665187 0.047016785
-0.38534665 2.6840665 0.047330927
0.8824333 0.37211993 0.050190188
0.87154162 0.38967663 0.050033178
0.86914498 0.39499336 0.050033178
0.85490471 0.42493612 0.050033178
0.82636875 0.47806635 0.050033178
0.80918086 0.50661522 0.050033178
0.80607128 0.51154846 0.050033178
0.79431713 0.5367831 0.050242521
0.78403795 0.54471755 0.050033178
0.79102349 0.5416249 0.050242521
0.76973414 0.56811947 0.050137851
0.77442396 0.56678921 0.050294861
0.76784891 0.57400674 0.050242521
0.75518477 0.58568114 0.050085515
0.74547803 0.59959394 0.050137851
0.75319231 0.59633094 0.050347198
0.74535322 0.60292059 0.050242525
0.73639715 0.62622494 0.05066121
0.72761762 0.63641953 0.05066121
0.73025495 0.63033944 0.050556537
0.72138304 0.64047366 0.050556537
0.71450603 0.65701288 0.050870553
0.72522366 0.65712309 0.051289242
0.70933288 0.66552556 0.050975226
0.72011638 0.6656689 0.051393915
0.70420557 0.67287046 0.051045004
0.70088989 0.68588346 0.051393915
0.71416402 0.68941969 0.052021943
0.69774431 0.69192249 0.051498584
0.70708269 0.69097733 0.051812604
0.68916786 0.70326447 0.051603258
0.69736582 0.70078278 0.051812604
0.68740815 0.71424502 0.051952165
0.68287528 0.72591811 0.052231289
0.69369477 0.7266717 0.052649979
0.66791034 0.73971051 0.052231289
0.67450601 0.7336933 0.052231293
0.6752882 0.74919409 0.052859318
0.66488975 0.75310916 0.052649979
0.67601144 0.75927204 0.053278007
0.65424001 0.76764315 0.052859318
0.66415393 0.76172614 0.052963991
0.65414023 0.77819407 0.053278007
0.64629006 0.78989393 0.053487353
0.65272129 0.78718412 0.053592026
0.64048266 0.79461002 0.053487353
0.65079355 0.79653132 0.053906042
0.63572013 0.80351883 0.053696696
0.63889349 0.81627709 0.054324731
0.62515926 0.82182944 0.054115385
0.63341159 0.82389325 0.054464296
0.61762166 0.83497369 0.054429404
0.62463522 0.83223844 0.054534074
0.61795598 0.84711915 0.054952759
0.60762703 0.85945481 0.055162102
0.6137616 0.85508472 0.055162102
0.62206858 0.85400754 0.055371448
0.60161209 0.86367589 0.055162102
0.61492902 0.86161005 0.055476122
0.59858805 0.87062657 0.055371448
0.60937595 0.87287146 0.055790137
0.59469008 0.88533998 0.055894807
0.60083592 0.88843274 0.056208819
0.58440989 0.89454794 0.055999476
0.59524179 0.89219046 0.056208819
0.57734114 0.90624607 0.056313492
0.58288389 0.90031272 0.056208819
0.57466453 0.91502899 0.056627508
0.56598663 0.92978758 0.057046197
0.574076 0.92480874 0.057046194
0.56335497 0.93371195 0.057150871
0.55357701 0.95573956 0.057883576
0.54353261 0.96836412 0.058197588
0.55126858 0.96628141 0.058302261
0.52437723 0.99921519 0.059139632
0.53322113 0.99905407 0.059348982
0.53065014 1.0094564 0.059767671
0.52376717 1.0130448 0.059767671
0.51064169 1.0241894 0.05997701
0.50340343 1.0455289 0.060814388
0.51050895 1.0420779 0.060814388
0.49490881 1.0550864 0.061076064
0.50847214 1.0541716 0.061337747
0.48711339 1.0664058 0.061442416
0.48802543 1.0703804 0.061651766
0.48474801 1.0806308 0.062070452
0.47691125 1.0950069 0.06259381
0.48545539 1.0934312 0.062698483
0.46785879 1.1054206 0.06290783
0.47517917 1.1022936 0.062907822
0.4653092 1.119485 0.063535862
0.46605811 1.1234992 0.063745201
0.46029982 1.1301848 0.06395454
0.45772004 1.1484504 0.064791918
0.46422237 1.1415265 0.064582579
0.45465025 1.1553873 0.065071046
0.43828121 1.1688154 0.06541995
0.44500184 1.1619968 0.065210611
0.43337792 1.1791576 0.065838635
0.4281491 1.1938051 0.066466674
0.43419564 1.1958634 0.066676013
0.41424212 1.2071512 0.06688536
0.42307979 1.204082 0.06688536
0.40898189 1.2173741 0.067304045
0.4163833 1.2106391 0.067094706
0.40339318 1.2276497 0.06772273
0.39589795 1.2447596 0.068455435
0.40751332 1.2431141 0.068560109
0.38357648 1.256973 0.068874121
0.39130807 1.2524954 0.068769448
0.37697485 1.2693897 0.069397487
2.986079 -3.4533083 0.079687685
2.9739175 -3.4453168 0.07944335
0.37277371 1.2851931 0.070130184
0.36707407 1.2972143 0.070653543
0.35846129 1.305835 0.070967562
0.36384413 1.3053757 0.071019903
0.35145566 1.3139412 0.071281582
0.34536511 1.3258775 0.071804941
0.33903995 1.3398737 0.072432972
0.34644783 1.3338507 0.072223626
0.33253992 1.355901 0.07316567
0.34177664 1.3556623 0.073270351
0.32537672 1.3679049 0.073689036
0.31692466 1.3760371 0.074003048
0.30991843 1.3899126 0.07463108
0.3152855 1.3866479 0.074526407
0.30480406 1.4073958 0.075468451
0.30568039 1.4174232 0.075991817
0.29823503 1.4281912 0.076462835
0.2882233 1.4333013 0.076619849
0.28054985 1.4439797 0.077090874
0.29105574 1.4408802 0.077038541
0.27358434 1.4625902 0.077980585
0.26577801 1.4741776 0.078503944
0.2662541 1.4842384 0.079027303
0.25802487 1.493799 0.079445988
0.24921989 1.5054163 0.079969354
0.86886257 0.4090414 0.084018134
0.85315412 0.43357763 0.083727621
0.84276313 0.4562507 0.083843827
0.83734286 0.46816823 0.083930984
0.82000792 0.48824146 0.0834952
0.80545741 0.51928097 0.083843827
0.81110418 0.51414692 0.084018134
0.79393178 0.54381984 0.084192447
0.78847116 0.55517536 0.084366761
0.77276289 0.57683963 0.084366761
0.75639892 0.60772574 0.084889688
0.7355023 0.63285559 0.084889688
0.73545796 0.64203298 0.085412621
0.74238372 0.64013082 0.085761249
0.72163576 0.66637307 0.085935563
0.71570677 0.68431228 0.086632803
0.70951253 0.69359398 0.086807117
0.70456851 0.70284492 0.08706858
0.69742447 0.71968573 0.087678678
0.70041192 0.71399033 0.087504365
0.68543297 0.72838223 0.087504365
0.6957168 0.72409427 0.087852985
0.68685734 0.73386848 0.087940142
0.67423064 0.75753874 0.088724539
0.66892594 0.762227 0.088724539
0.6613338 0.78452468 0.089770414
0.65330029 0.79251188 0.089857571
0.23973635 1.5170667 0.080492713
0.24200121 1.5227742 0.080806725
0.23219213 1.5344014 0.081330083
0.22471809 1.5536786 0.082272127
0.22477227 1.5617425 0.08269082
0.21713178 1.5789531 0.083528191
0.21657091 1.5830619 0.083737537
0.20626342 1.592494 0.084156223
0.19768283 1.6076688 0.084888935
0.20896535 1.600199 0.084574915
0.18891197 1.6227993 0.085621633
0.18887112 1.6348679 0.086249664
0.18018316 1.6479037 0.086877696
0.17960732 1.6560026 0.087296382
0.16925079 1.6691386 0.087924413
0.17070724 1.6689903 0.087924413
0.15871875 1.6822101 0.088552445
0.16018741 1.6820709 0.088552445
0.14887363 1.6931349 0.089075804
0.64976668 0.80440241 0.090467662
0.65466839 0.80041808 0.090467662
0.63394564 0.82573164 0.091077745
0.61509317 0.8640337 0.092791818
0.61291146 0.87695706 0.093605265
0.59695154 0.89509147 0.094128199
0.59608448 0.90641928 0.094912603
0.58353478 0.92987442 0.096045621
0.57678872 0.93718845 0.096278049
0.56987983 0.94994122 0.09691719
0.57256597 0.94133544 0.096394248
0.53103465 1.0106149 0.099880479
0.1388099 1.7140284 0.090122521
0.12907419 1.7328149 0.091064572
0.1284418 1.7448781 0.091692604
0.1178875 1.7586341 0.092372969
0.10751935 1.7783076 0.093367353
0.095635734 1.7889869 0.093890712
0.10620598 1.7823882 0.093576699
0.094388388 1.7950532 0.094204731
0.0836678 1.814579 0.095199108
0.072542652 1.8300493 0.095984153
0.071319476 1.8480862 0.096926205
0.060352828 1.8584685 0.097449563
0.058794167 1.8605168 0.097554229
0.047205307 1.8778288 0.09844394
0.035320565 1.8910745 0.099124312
0.033847246 1.9010894 0.099647671
0.53639996 1.0111556 0.10014194
0.52735198 1.0252479 0.10086825
0.51335174 1.0441893 0.10179791
0.50877887 1.0552795 0.10249515
0.5132581 1.0542099 0.10258231
0.49641943 1.0655472 0.10284378
0.50390172 1.0631318 0.10293093
0.48745367 1.0871704 0.10423827
0.48306164 1.0978416 0.10493552
0.47853583 1.1074226 0.1055456
0.48623952 1.1029732 0.10545845
0.47565669 1.1205765 0.10650431
0.45868108 1.149112 0.10824744
0.45363334 1.1575361 0.10877036
0.46002278 1.1507215 0.10842174
0.44931534 1.1698967 0.10964192
0.45500219 1.1634192 0.1092933
0.022396868 1.9152406 0.10038038
0.020833654 1.9252452 0.10090373
0.0091854129 1.9493034 0.1021598
0.00753137 1.9612939 0.10278783
-0.0044905539 1.9792787 0.10372987
-0.0062365169 1.9852657 0.10404389
-0.019083522 2.006156 0.10514294
-0.033583164 2.0359287 0.10671303
-0.047343809 2.0546343 0.10770741
-0.049639564 2.0605738 0.10802142
-0.062346142 2.0762138 0.1088588
-0.065078527 2.0941136 0.10980085
0.87826306 0.36954874 0.11699458
0.87761772 0.37614661 0.11723832
0.88224602 0.3703188 0.11748206
0.86489165 0.38543665 0.11626337
0.86552018 0.39608765 0.11687271
0.84863555 0.406416 0.11553215
0.86057502 0.40440565 0.11675084
0.84493232 0.41404963 0.11553215
0.83986408 0.42424613 0.11553215
0.84555209 0.42619315 0.11626337
0.85347402 0.42366785 0.11699458
0.83449388 0.43254918 0.11541028
0.84368378 0.4363867 0.11662897
0.82982832 0.44775108 0.11577588
0.83087218 0.44159701 0.11553215
0.82317495 0.45986849 0.11577588
0.83332926 0.45516124 0.11658835
0.81609011 0.46634358 0.11541028
0.8233968 0.46756458 0.11626337
0.83043069 0.46316108 0.11675084
0.81580466 0.47544447 0.11593837
0.81461513 0.4846459 0.11638524
0.79981494 0.49939173 0.11577588
0.80297643 0.49554476 0.11585712
0.81541681 0.49295801 0.11699458
0.79842669 0.50532991 0.11601962
0.79541087 0.51554608 0.11638524
0.80624938 0.51521337 0.11748205
0.78382081 0.52531976 0.11585713
0.79097843 0.52413285 0.1165071
0.80126756 0.52293813 0.11748206
0.78416866 0.53602803 0.11662897
0.77574933 0.54642028 0.1165071
0.78229946 0.54513532 0.11707583
0.76748288 0.55628181 0.11638524
0.77462775 0.55314875 0.11687271
0.76757944 0.5645653 0.11699458
0.75436741 0.5788464 0.11675084
0.76663643 0.57470727 0.11764455
0.76580054 0.58022141 0.11796954
0.74651849 0.59850156 0.11748205
0.75374049 0.59580398 0.11796953
0.74617255 0.6068294 0.1180914
0.73539585 0.615215 0.1177258
0.7419709 0.61195958 0.1180914
0.73135406 0.62001443 0.11772579
0.72620082 0.63361669 0.11833514
0.73361576 0.63112128 0.11882262
0.74454075 0.63208741 0.11991944
0.71966833 0.64549488 0.11870075
0.72764945 0.64399707 0.1193101
0.71808136 0.65317488 0.11918823
0.72202784 0.65768623 0.11991944
0.71466148 0.66421527 0.11979757
0.4292843 1.194346 0.11103641
0.43645522 1.1952733 0.11132693
0.42432979 1.2056241 0.11182082
0.41945824 1.2168151 0.11260521
0.39971989 1.2464769 0.11452264
0.40608597 1.2444106 0.11452264
0.39448527 1.2564991 0.11521988
0.39457962 1.2606456 0.11556852
0.38920534 1.2706525 0.11626577
0.39020005 1.278682 0.116963
0.38290185 1.2840052 0.11722447
0.36735344 1.2999309 0.11818319
0.37614977 1.2943008 0.11792172
0.3712045 1.3091942 0.11905474
0.36307073 1.317674 0.11957768
-0.080238737 2.1175723 0.11105692
-0.07809484 2.1196511 0.11116158
-0.095196828 2.1459413 0.11257465
-0.11238419 2.16611 0.11367371
-0.11069746 2.1701965 0.11388306
-0.12711793 2.1913037 0.11503445
-0.12961602 2.2011611 0.1155578
-0.14500363 2.2302239 0.11712788
-0.14734741 2.2420797 0.1177559
-0.16459197 2.273922 0.119483
0.72179323 0.66675186 0.12065066
0.7049306 0.67884439 0.12016319
0.71770674 0.67114872 0.12065066
0.70266289 0.68546236 0.12052879
0.69801009 0.69582617 0.12101626
0.70021975 0.69219995 0.12089439
0.6867671 0.70831656 0.12113814
0.69048685 0.70190918 0.12089439
0.67798334 0.71945888 0.12138188
0.68697894 0.7191332 0.1221131
0.67651391 0.72763175 0.12199122
0.68802267 0.72909123 0.12308804
0.663562 0.74345845 0.12235683
0.65682095 0.75732118 0.12308805
0.66464901 0.75575578 0.12357552
0.67096758 0.75281292 0.12381926
0.64921278 0.76905656 0.12357552
0.65280938 0.76339573 0.12333179
0.64863569 0.77989942 0.12455048
0.65365821 0.77569473 0.12455048
0.64492524 0.78682423 0.12491608
