# .PCD v0.7 - Point Cloud Data file format
VERSION 0.7
FIELDS x y z
SIZE 4 4 4
TYPE F F F
COUNT 1 1 1
WIDTH 797
HEIGHT 1
VIEWPOINT 0 0 0 1 0 0 0
POINTS 797
DATA ascii
-1.0456228 0.099760987 -0.24249724
-1.6091875 1.1246737 -0.24105757
-1.0348779 0.061937362 -0.23934793
-1.1515788 0.29096648 -0.23087889
-1.5748935 1.0535016 -0.2326486
-1.5754495 1.0686655 -0.23374543
-1.5874628 1.0792433 -0.23569533
-1.6066104 1.1074983 -0.23959514
-1.9631176 1.7769266 -0.23165996
-1.9774889 1.7937057 -0.23357739
-1.9982994 1.8359225 -0.23741224
-2.0022826 1.8638943 -0.23932965
-0.5883044 -0.76200145 -0.22225164
-0.59357059 -0.75294077 -0.22135183
-0.58539265 -0.75932527 -0.22135183
-0.59801894 -0.74192756 -0.22000213
-1.5141485 0.96684933 -0.22058353
-1.5335768 0.99534559 -0.22448336
-1.5469258 1.0184609 -0.22740822
-1.555979 1.0263683 -0.22887065
-1.9003577 1.6525376 -0.22032972
-1.9165556 1.688482 -0.22346732
-1.9502053 1.7406248 -0.22869666
-1.9454113 1.7400093 -0.22834805
-0.60489744 -0.73379916 -0.21955223
-0.59812206 -0.73180437 -0.21820252
-0.58624732 -0.73886538 -0.21775262
-0.60865545 -0.72434032 -0.21842748
-0.61205208 -0.7176351 -0.21775262
-0.60649693 -0.71212769 -0.21595301
-0.61194777 -0.70744914 -0.21595301
-1.4791174 0.88768953 -0.21180893
-1.4679809 0.88309854 -0.21034651
-1.4821061 0.90574682 -0.21327138
-1.4798212 0.90186924 -0.21278389
-1.4892391 0.92444712 -0.21522127
-1.5023758 0.94463211 -0.21790241
-1.5081033 0.95043874 -0.21887736
-1.8515751 1.5624871 -0.21196276
-1.8499377 1.5644256 -0.21196276
-1.8730813 1.6048594 -0.21579763
-1.8930579 1.6427118 -0.21928383
-1.4439671 0.82596362 -0.20425305
-1.4499896 0.83142525 -0.205228
-1.4715921 0.85751885 -0.20912781
-1.4673406 0.85298455 -0.20839658
-1.4681869 0.86724567 -0.20937155
-1.4706943 0.87080544 -0.20985903
-1.778542 1.4381797 -0.20010957
-1.7894186 1.4500765 -0.20150407
-1.810034 1.4878374 -0.2049903
-1.8085104 1.4834137 -0.20464167
-1.8256791 1.5189403 -0.20777929
-1.8332694 1.5285066 -0.20882516
-1.7247595 1.3376172 -0.19095823
-1.737352 1.3651975 -0.19331144
-1.7450728 1.3747168 -0.19435729
-1.7589375 1.402132 -0.19679767
-1.7699217 1.4139217 -0.19819216
-2.4676261 2.6854041 -0.19113094
-2.516094 2.7709744 -0.19615518
0.16477676 -2.1414657 -0.18790779
0.16633645 -2.1373487 -0.18755916
0.15070757 -2.1285207 -0.1866876
-0.58190113 -0.763578 -0.18661121
-0.5773325 -0.76949394 -0.18699282
-0.57542354 -0.75617236 -0.18470311
-0.58350402 -0.74497336 -0.18393987
-0.58798528 -0.73893422 -0.18355827
-0.62100369 -0.70749664 -0.18298584
-0.62201154 -0.69874483 -0.18184099
-1.666415 1.2214185 -0.18076101
-1.6745934 1.2438906 -0.18250412
-1.6923279 1.2734087 -0.18529311
-1.7016807 1.2841718 -0.18651329
-1.7086136 1.3063347 -0.18816924
-2.3782365 2.5175531 -0.18150112
-2.4018652 2.5720816 -0.18443193
-2.4209566 2.5979743 -0.18610668
-2.4542017 2.6651878 -0.18987487
-0.61993867 -0.68609971 -0.17974208
-1.6112467 1.127369 -0.17204544
-1.6231154 1.1382071 -0.17343993
-1.6423242 1.1662759 -0.17622891
-1.6313621 1.1610636 -0.17518303
-1.6529138 1.1925575 -0.17832063
-1.6582555 1.2123265 -0.17971513
-2.2866001 2.3480799 -0.17176662
-2.2948627 2.3623328 -0.17260399
-1.5452847 1.004289 -0.16123812
-1.5581926 1.0282192 -0.16332985
-1.5642185 1.0479435 -0.16472435
-1.5706031 1.0669804 -0.16611885
-1.5793663 1.0753523 -0.16716471
-1.5955358 1.1010975 -0.16960508
-2.173269 2.1453793 -0.16004337
-2.2057161 2.2034075 -0.16339287
-2.2147 2.21702 -0.16423026
-2.2482052 2.2766361 -0.16768442
-1.4853268 0.89353555 -0.151651
-1.4960554 0.91426903 -0.1533941
-1.4959199 0.92967963 -0.15409136
-1.5002793 0.93021214 -0.15443997
-1.5148323 0.95578802 -0.15670602
-1.508922 0.95021898 -0.15600878
-1.5257506 0.97575796 -0.15844914
-1.5349638 0.98353839 -0.159495
-2.1057084 2.0171854 -0.152821
-2.139535 2.0827878 -0.15648453
-2.1669774 2.1346927 -0.15941535
-1.451861 0.82042027 -0.1458987
-1.4535184 0.83361721 -0.14659595
-1.453197 0.84611988 -0.1471189
-1.4593416 0.85140407 -0.14781614
-1.4679831 0.86816245 -0.14921063
-1.4739287 0.87376314 -0.14990787
-1.9936236 1.8064392 -0.14099309
-1.9887736 1.8058404 -0.14078373
-2.0160222 1.8544793 -0.14355755
-2.0368826 1.8980945 -0.14591266
-2.0483649 1.9121377 -0.14685471
-2.0700347 1.9561651 -0.14926216
-2.077029 1.9662095 -0.14989018
-1.8980426 1.6493613 -0.13178195
-1.9098701 1.6631525 -0.13272399
-1.9287332 1.6992105 -0.13471277
-1.9389304 1.7118046 -0.13555014
-1.9628179 1.7555816 -0.13800994
-1.7834339 1.4441966 -0.12026804
-1.7930306 1.4545596 -0.12100074
-1.810349 1.4870369 -0.12278017
-1.8167615 1.4949619 -0.12330353
-1.8446907 1.5363927 -0.12581564
-1.8461477 1.5408832 -0.12602501
-1.8658327 1.5795438 -0.12811844
-1.8761436 1.6074817 -0.12947917
-1.8805205 1.6146498 -0.12989786
0.16322535 -2.1408401 -0.11252232
0.16463293 -2.1347227 -0.1122083
0.1479834 -2.1189237 -0.11131859
-1.6939771 1.2765034 -0.11116158
-1.698791 1.2833877 -0.11158027
-1.7138125 1.309835 -0.11304568
-1.7199078 1.3183014 -0.11356904
-1.7422338 1.3531207 -0.11561014
-1.7573037 1.3841019 -0.11723255
-1.7733437 1.4169078 -0.11895964
-1.5890042 1.0819151 -0.10074673
-1.6008866 1.1052024 -0.10195045
-1.5964437 1.1046053 -0.10174111
-1.6172714 1.1341076 -0.10352053
-1.6412463 1.1693933 -0.10561397
-1.6343311 1.1618875 -0.10509061
-1.6488552 1.1896296 -0.10655601
-1.6557009 1.197207 -0.10707937
-1.6759633 1.2270687 -0.1088588
-1.666626 1.2229151 -0.10833544
-1.6764311 1.2466171 -0.10948683
-1.4849879 0.89456785 -0.090855226
-1.499711 0.91650558 -0.092111297
-1.5019959 0.9204244 -0.092320636
-1.5102452 0.93748665 -0.093158014
-1.5228291 0.94750869 -0.093995392
-1.5285008 0.96478522 -0.09472809
-1.5369473 0.98499942 -0.095670134
-1.5455383 1.004835 -0.096612185
-1.5513546 1.0105441 -0.097030871
-1.5603342 1.0296323 -0.097972922
-1.5609211 1.0323675 -0.098077588
-1.5774438 1.0580007 -0.099542998
-1.4471499 0.80448186 -0.086773023
-1.4506218 0.81871837 -0.087296382
-1.4480255 0.81925344 -0.087191716
-1.4621956 0.8387633 -0.088343106
-1.4595851 0.83929837 -0.088238433
-1.4701083 0.85699743 -0.089180477
-1.467635 0.85727286 -0.089075804
-1.4675261 0.86927605 -0.089389823
-1.466767 0.87055618 -0.089389823
0.16264568 -2.123456 -0.037173625
0.16049047 -2.1196091 -0.037103817
-1.4519062 0.81643856 0.087296382
-1.4440509 0.81003183 0.086773023
-1.4661213 0.83592188 0.088447772
-1.4704473 0.84042984 0.088761792
-1.4733287 0.8554337 0.08928515
-1.4688904 0.85114336 0.088971131
-1.4776421 0.87178755 0.089913182
-1.4835654 0.87353802 0.090227202
-1.4847567 0.88913417 0.09069822
-1.4952774 0.90842831 0.091692604
-1.5026951 0.91544956 0.092215963
-1.5134145 0.93616372 0.09326268
-1.5092951 0.93143183 0.092948668
-1.5264478 0.95679641 0.094414078
-1.5372833 0.96583194 0.095146775
-1.5454166 0.98472792 0.096036494
-1.5431318 0.99753237 0.096298166
-1.5539954 1.0064787 0.097030871
-1.5530052 1.0189698 0.09734489
-1.5619495 1.0271803 0.097972922
-1.574111 1.048611 0.099124312
-1.5796562 1.0546949 0.099542998
-1.5948776 1.0785954 0.10090373
-1.6003602 1.0847476 0.10132242
-1.6070676 1.1032686 0.1021598
-1.5993298 1.1004224 0.10174111
-1.6128612 1.1247312 0.10304951
-1.6361541 1.1593189 0.10509061
-1.6292129 1.1518401 0.10456725
-1.6521535 1.186757 0.10660836
-1.6714351 1.2197254 0.10844011
-1.6694822 1.2156231 0.10823077
-1.6853092 1.2463808 0.10985318
0.15554416 -2.1334019 0.11210363
0.15310848 -2.1255682 0.11168494
-1.6957366 1.2725015 0.11110925
-1.709286 1.2992998 0.11252232
-1.7154118 1.3077399 0.11304568
-1.7299902 1.3346779 0.11451109
-1.7457364 1.350232 0.11566247
-1.7554713 1.3734989 0.11681387
-1.7710782 1.3892021 0.11796526
-1.7818198 1.4142799 0.11922132
-1.7785283 1.4152117 0.11911664
-1.7872092 1.4395219 0.12026804
-1.7937237 1.4473524 0.1207914
-1.8159068 1.4849811 0.12293717
-1.8424915 1.5296661 0.12550163
-1.8394783 1.5239134 0.12518762
-1.8609058 1.5637002 0.12738572
-1.8669059 1.5720803 0.12790908
-1.8833048 1.6067886 0.12974085
-1.9008427 1.6430806 0.13167727
-1.9051596 1.6503009 0.13209596
-1.9256648 1.6875733 0.13418941
-1.9359024 1.7001326 0.13502678
-1.9616077 1.7434341 0.1375389
-1.9672378 1.7521294 0.13806225
-1.4566205 0.82009351 0.14624733
-1.4564826 0.83244962 0.14677027
-1.4756168 0.85710788 0.14929777
-1.9924115 1.7958651 0.1405744
-1.9934942 1.8006278 0.14078373
-2.0238199 1.8518887 0.14376688
-2.0439463 1.8963635 0.14612201
-2.078059 1.9534754 0.14947151
-1.4915062 0.87926561 0.15147668
-1.4855922 0.87752688 0.15095374
-1.4990056 0.89784712 0.15287116
-1.5014809 0.90146732 0.1532198
-1.5067688 0.91774905 0.15435281
-1.5147257 0.93715781 0.15583447
-1.5256014 0.95737886 0.15757757
-1.5262843 0.96003699 0.15775189
-2.0879853 1.9662426 0.15030889
-2.0994148 2.0006435 0.15198363
-2.1150045 2.0190241 0.1532397
-2.1414099 2.0693796 0.15606584
-2.1507194 2.0827365 0.15690321
-1.5460855 0.9864862 0.16045371
-1.5539021 1.0056486 0.16193536
-1.5613824 1.0124245 0.16280691
-1.574698 1.0357599 0.16489866
-1.5857466 1.0587611 0.16681609
-1.5937248 1.0790328 0.16838489
-1.6008375 1.0862948 0.16925645
-2.1828489 2.1413383 0.16025271
-2.2074926 2.1959667 0.16318353
-2.2386799 2.2551506 0.16653302
-2.2457607 2.267818 0.16726573
-1.6058569 1.1036749 0.17047663
-1.6194675 1.1155277 0.17204544
-1.6275259 1.1353774 0.17361423
-1.6345005 1.1427892 0.17448579
-1.6457802 1.1648459 0.17640322
-1.6396846 1.1631105 0.17588028
-1.6572111 1.1917048 0.17858212
-2.2829595 2.3320954 0.17103392
-2.2926674 2.347743 0.17197597
-2.3304327 2.4140759 0.17584883
-2.3385644 2.4284308 0.17668621
0.15352306 -2.1522896 0.18877934
0.15497087 -2.1461928 0.1882564
0.16893522 -2.1441393 0.18816924
-1.6647767 1.2135311 0.18023807
-1.6731579 1.2223256 0.18128395
-1.6932492 1.2538549 0.18433438
-1.7124412 1.2864413 0.18738484
-1.7240195 1.314064 0.18965089
-2.3793175 2.5055256 0.18108243
-2.4215913 2.5823433 0.18553099
-1.7345361 1.3396343 0.19174263
-1.7376239 1.345412 0.19226557
-1.7572336 1.3785902 0.19540317
-1.7767367 1.4117624 0.19854078
-2.469312 2.6675467 0.1905029
-2.4827797 2.687737 0.19175896
-2.5206463 2.7614281 0.19594584
-1.4537623 0.80450708 0.20400929
-1.4498404 0.81560999 0.20425305
-1.4593602 0.82297826 0.20571546
-1.4630672 0.83655053 0.20693417
-1.4690795 0.8420307 0.20790912
-1.4718915 0.85700476 0.20912781
-1.7890365 1.4251038 0.20010957
-1.8100172 1.4594568 0.2034215
-1.8131367 1.4651084 0.20394444
-1.8321712 1.498547 0.20708205
-1.8216158 1.4925685 0.20603617
-1.8363328 1.5248244 0.20882514
-1.4795043 0.8597095 0.21010277
-1.4782126 0.87369114 0.21083398
-1.489642 0.89329869 0.21327138
-1.498914 0.90099424 0.21473379
-1.5071033 0.91813511 0.21668372
-1.5076743 0.92101067 0.21692745
-1.5131788 0.93857622 0.21863361
-1.522601 0.94221413 0.21985231
-1.8586011 1.5634246 0.2124857
-1.8691499 1.5756432 0.2138802
-1.8900808 1.6125705 0.21736643
-1.8974771 1.6223172 0.21841228
-1.5327932 0.96338403 0.22228971
-1.5267447 0.96181422 0.22155848
-1.5410898 0.98367357 0.22448336
-1.5385582 0.98394877 0.2242396
-1.5532944 1.0087211 0.22740822
-1.5458452 1.0019667 0.22618952
-1.9149361 1.6570154 0.22154988
-1.9252421 1.669462 0.22294438
-1.9437543 1.7058268 0.22625631
-1.9494472 1.7144405 0.22712786
-1.9603797 1.7441807 0.22956821
-1.5760449 1.0392101 0.2317955
-1.5688403 1.032104 0.23057681
-1.5874529 1.0615034 0.23447664
-1.5964282 1.0837084 0.23691402
-1.6035345 1.1049654 0.23910768
-1.968962 1.7555146 0.23078841
-1.9940115 1.7992004 0.23497188
-2.0054271 1.813314 0.23654069
-1.6144626 1.1275214 0.24178879
-1.6214126 1.134903 0.2430075
-1.6324636 1.1571326 0.2456886
-1.6425793 1.1668891 0.2473948
-1.6517406 1.1882076 0.24983218
-2.0254991 1.8534273 0.24020122
-2.0308993 1.8622805 0.24107277
-2.0563238 1.9081807 0.24543057
-2.0630786 1.9184735 0.24647643
-1.6569363 1.1945802 0.25080714
-1.6740302 1.2234089 0.25458509
-1.6846558 1.2474896 0.25738806
-1.6879119 1.2530968 0.25811929
-2.0885243 1.9670947 0.25100854
-2.1101995 2.0137334 0.25519201
-2.1156421 2.0224576 0.25606358
0.1514174 -2.138546 0.2632378
0.15243161 -2.1265328 0.26177537
-1.4592029 0.81051445 0.26437429
-1.4616807 0.82428753 0.26578218
-1.4700171 0.84359092 0.26844159
-1.4674709 0.84008837 0.26781586
-1.7012984 1.2782993 0.2612879
-1.701321 1.2815713 0.26153165
-1.7178198 1.3091016 0.26518771
-1.7238759 1.3175261 0.26640642
-1.7351018 1.3420068 0.26933128
-2.1465635 2.0765345 0.2612929
-2.152971 2.0871024 0.26233879
-2.1889057 2.14728 0.26826537
-2.1923394 2.1551578 0.26896262
-1.4769373 0.85925299 0.27063167
-1.4830133 0.86452037 0.27188313
-1.4909232 0.88225627 0.27438608
-1.500515 0.90088743 0.27720189
-1.497721 0.90170103 0.27688903
-1.5031857 0.91934973 0.27907911
-1.7428737 1.351424 0.27079371
-1.7634132 1.3831897 0.275181
-1.7769256 1.4157109 0.27895898
-2.2235518 2.2142591 0.2745406
-2.2526908 2.2724349 0.27994424
-1.5093672 0.92059815 0.28001773
-1.5146579 0.93839592 0.28220782
-1.5254213 0.94727612 0.2843979
-1.5331488 0.9647277 0.28690085
-1.5421625 0.97265536 0.28877807
-1.8011013 1.4569427 0.28444308
-1.7979923 1.4513149 0.28371185
-1.8213466 1.4918168 0.28907412
-2.2517111 2.2762091 0.28011855
-2.2901049 2.3418462 0.28656808
-2.2955897 2.3531992 0.28761396
-1.5604602 0.99910718 0.2934711
-1.5530084 0.99242693 0.29190674
-1.5663118 1.0173694 0.29581761
-1.5727354 1.0382098 0.29847699
-1.5804205 1.0409085 0.29972848
-1.8323208 1.503479 0.291024
-1.8478009 1.534618 0.29492384
-1.8553476 1.5441715 0.29638627
-2.3345537 2.4208801 0.29423779
-2.3454068 2.4380894 0.2959809
-1.5846097 1.0596023 0.30191854
-1.586781 1.0634609 0.3025443
-1.5918832 1.0806245 0.30473438
-1.6038166 1.0911802 0.30723733
-1.8689245 1.5743383 0.30004236
-1.8748591 1.5826969 0.30126104
-1.887228 1.6141245 0.30491713
-2.3766336 2.499203 0.30173317
-2.3914046 2.5208957 0.30399922
-1.6205409 1.1191888 0.31193036
-1.6135789 1.1118869 0.310366
-1.6242098 1.1381283 0.31412044
-1.6318762 1.1409545 0.3153719
-1.6419809 1.1677579 0.31912637
-1.6399807 1.1637514 0.31850061
-1.9082704 1.6535776 0.31003565
-1.9185278 1.6659883 0.31198555
-1.9372363 1.701903 0.31661656
-1.9503524 1.7170483 0.31905395
-2.4340866 2.5956674 0.3113203
-2.4445248 2.6131892 0.31306344
-1.4586966 0.82260394 0.32552016
-1.471507 0.83186024 0.32857311
-1.6494489 1.1878701 0.32194218
-1.6690271 1.2046257 0.32600945
-1.680988 1.2284951 0.32976389
-1.9697721 1.7550023 0.32392874
-1.973856 1.7623528 0.3249037
-2.4915361 2.7000513 0.32143039
-2.5358796 2.7810392 0.32927439
0.14970034 -2.1301286 0.33821136
0.13544211 -2.1261339 0.33742917
-1.4746187 0.84623039 0.3304812
-1.4809977 0.86265349 0.33315253
-1.4783982 0.8632139 0.33277091
-1.4939044 0.88525474 0.3375411
-1.6892619 1.2372589 0.33164111
-1.6932164 1.2552018 0.33383119
-1.7043651 1.2666965 0.33633414
-1.7144063 1.2895539 0.33977571
-1.7128299 1.2916468 0.33977571
-2.0031314 1.8099678 0.33148462
-1.998292 1.8093995 0.33099717
-2.0231357 1.8558143 0.33709061
-2.5423524 2.7940087 0.33049458
-2.5896707 2.8801608 0.33886153
0.15240027 -2.1418192 0.34008855
0.16627033 -2.1437593 0.34055787
-1.5031931 0.90606862 0.3411665
-1.4990938 0.90145844 0.34002164
-1.5152484 0.9278177 0.3453643
-1.5096787 0.92187291 0.34383783
-1.5248947 0.94584322 0.34879887
-1.5187368 0.94459486 0.34765401
-1.7244352 1.3155708 0.34353012
-1.7288717 1.3227789 0.34478158
-1.7430913 1.3496455 0.34916177
-2.040194 1.8958653 0.34196541
-2.0530689 1.9111705 0.34440279
-1.5277174 0.96354342 0.35108858
-1.5363463 0.98291254 0.35452312
-1.5452324 0.99087948 0.35681283
-1.753925 1.361464 0.35166472
-1.7680444 1.3883182 0.35604486
-1.7803166 1.4014739 0.3588607
-2.0760288 1.9563497 0.35025251
-2.0887558 1.9717875 0.35268989
-2.682183 3.0670714 0.35646698
-2.67766 3.0683773 0.35629267
-1.5660453 1.0183625 0.36310953
-1.5834726 1.0454974 0.36883378
-1.7892113 1.425243 0.36230227
-1.7951863 1.4335914 0.36386663
-1.8128916 1.4667418 0.36934185
-2.1229503 2.0280273 0.36048955
-2.1226144 2.0312507 0.36073327
-2.1629207 2.095284 0.36975163
-2.1550281 2.0920169 0.36877668
-1.5917211 1.0667715 0.3724592
-1.5994133 1.0869598 0.37589374
-1.6015195 1.0908444 0.37665698
-1.8284578 1.4992416 0.37450415
-1.8317282 1.504598 0.37544277
-2.1836436 2.1451104 0.37584507
-2.1799815 2.1460032 0.37560135
-1.4573431 0.79754078 0.38354155
-1.4474822 0.80532736 0.38241678
-1.4473422 0.81753314 0.3837665
-1.4515727 0.8219288 0.38511622
-1.4635699 0.8402307 0.38961524
-1.6144103 1.1137068 0.3812364
-1.6245471 1.1232123 0.38390771
-1.6341405 1.1455109 0.38791472
-1.8470713 1.5356469 0.38044867
-1.8576034 1.5476959 0.38295162
-1.8785886 1.5841613 0.389209
-2.2108049 2.2023325 0.38315722
-2.2197368 2.2158661 0.38510716
-1.4662144 0.84345096 0.39051503
-1.4804786 0.86546832 0.39591387
-1.4745004 0.86024803 0.39411426
-1.4861287 0.88274938 0.39906317
-1.6501173 1.172244 0.39344814
-1.6600841 1.181942 0.39611951
-1.659749 1.1992513 0.3980276
-1.8859811 1.5937775 0.39108619
-1.9050133 1.629336 0.39703071
-1.9078057 1.6351866 0.39796934
-2.2558258 2.2779818 0.39363801
-2.2628067 2.2906213 0.3953442
-1.4954349 0.8861596 0.40131268
-1.4954178 0.90138173 0.40311229
-1.5061908 0.92118764 0.40761131
-1.6753365 1.2078459 0.40146214
-1.6828551 1.2325656 0.40546912
-1.9249276 1.6697787 0.40360096
-1.9276507 1.6756814 0.40453959
-2.2925704 2.3476436 0.4029001
-2.3049366 2.3660843 0.40558121
0.15094483 -2.1424897 0.41749012
-1.5185165 0.93091232 0.41121054
-1.5212421 0.94504881 0.41346005
-1.5268687 0.95076156 0.41525963
-1.5376809 0.97020435 0.41975865
-1.6945646 1.2580359 0.41023937
-1.7026973 1.2668412 0.41252908
-1.712624 1.2896177 0.41672686
-1.7173152 1.2964402 0.41825336
-1.9474776 1.7145194 0.4109534
-1.978381 1.7645323 0.41987014
-2.3394654 2.4293661 0.41411206
-2.3474972 2.4436748 0.416062
-1.5401284 0.9736281 0.42065847
-1.5476654 0.99263048 0.42448264
-1.5562985 1.0133796 0.42875671
-1.7301003 1.3218045 0.42321438
-1.7378353 1.3310801 0.42550406
-1.9883147 1.7771342 0.42237309
-2.0070343 1.8154039 0.4286305
-2.3784928 2.5046573 0.42410538
-2.3863533 2.5190895 0.42605525
-1.5670679 1.0360413 0.43370563
-1.7518642 1.3579057 0.43084675
-1.750204 1.3600448 0.43084675
-1.7654903 1.3883063 0.436571
-1.7668766 1.3928928 0.43733424
-2.0139132 1.8254646 0.43050769
-2.0379825 1.8694304 0.43801656
-2.4247224 2.5893018 0.43556106
-2.4396286 2.6106951 0.43872967
-1.4620879 0.80113322 0.44672167
-1.4602604 0.8124367 0.44775698
-1.4594089 0.81396538 0.44775698
-1.4553716 0.82508659 0.44827461
-1.5864948 1.0648754 0.44112903
-1.5997232 1.0888038 0.44675279
-1.6066315 1.0959692 0.4490023
-1.78645 1.4250836 0.44420335
-1.7926242 1.4330831 0.44611144
-2.0491123 1.883595 0.44083238
-2.0726109 1.9280121 0.44834125
-2.0723729 1.9311666 0.44865409
-2.482003 2.6878371 0.44921044
-1.4680057 0.83021909 0.45189807
-1.4713361 0.84776527 0.45500392
-1.4621737 0.84044778 0.45189807
-1.4772024 0.86459118 0.45862737
-1.627552 1.1240308 0.45665067
-1.6199644 1.1212984 0.45485103
-1.8115598 1.465925 0.45298058
-1.8130734 1.4702941 0.45374379
-2.0950232 1.9763222 0.45616296
-2.0990412 1.9835759 0.45741442
-2.5007098 2.7137916 0.45311025
-1.4893951 0.88574487 0.46432137
-1.4967959 0.90346229 0.4684625
-1.6312317 1.1460233 0.46024984
-1.6422316 1.1709598 0.46564871
-1.8324913 1.5054948 0.46099454
-1.848249 1.5388101 0.46748206
-1.8499205 1.5429379 0.46824533
-2.124352 2.0314944 0.46554902
-2.1411228 2.0511112 0.46961632
-2.5420318 2.7916977 0.46359101
-2.5529466 2.808604 0.46602839
-1.6608558 1.2018173 0.47329703
-1.6759164 1.2274843 0.47959566
-1.8812371 1.588081 0.478549
-1.88407 1.5938541 0.47969386
-2.1654239 2.0999074 0.47775093
-2.17314 2.1118102 0.47994098
-2.6060321 2.9024315 0.47894657
-2.6087987 2.9106166 0.47992152
0.13019775 -2.0986559 0.48544434
-1.5213393 0.9484247 0.48036817
-1.5352839 0.96981627 0.48657984
-1.5391641 0.97452366 0.48813272
-1.685411 1.2376041 0.48274496
-1.6954597 1.260078 0.48769391
-1.8954571 1.6228819 0.48503649
-1.9086565 1.63765 0.48885265
-2.1985991 2.162065 0.48838848
-2.2033677 2.1712997 0.4899528
0.16565199 -2.1528404 0.49849153
0.14844355 -2.1228406 0.49129307
-1.5512407 0.99511391 0.49382678
-1.5568721 1.0006455 0.49589732
-1.9270693 1.6734055 0.49610341
-2.2312407 2.22735 0.49933887
-2.6612353 3.0048082 0.49283966
-2.6702256 3.0577033 0.49844566
-1.5636801 1.0185728 0.50003839
-1.569262 1.0241598 0.50210893
-1.5755038 1.0428009 0.50625008
-1.7243623 1.3188509 0.50119096
-1.7302504 1.3271873 0.5034405
-1.941607 1.6895992 0.50030124
-1.9654338 1.7309346 0.50907844
-2.2644365 2.2890728 0.50997645
-1.5866239 1.0661675 0.51220286
-1.5980659 1.0889004 0.51815575
-1.7459048 1.3547504 0.510189
-1.750401 1.3616683 0.51198858
-1.7670288 1.3910137 0.51918703
-1.9768678 1.7446834 0.51251298
-1.9848942 1.7740797 0.51747406
-2.2685757 2.2988675 0.51154077
-1.6049012 1.0960211 0.52074397
-1.6158462 1.1176139 0.526438
-1.769917 1.3967936 0.52053672
-1.786234 1.4295081 0.52818507
-1.7938211 1.4325012 0.52998471
-2.0126915 1.8224379 0.52777767
-2.0180511 1.8311411 0.5296858
-2.3035758 2.3613858 0.52249116
-2.3158433 2.3797715 0.52593273
-1.6257887 1.1270094 0.53006142
-1.6414093 1.1518905 0.53730839
-1.8049666 1.463721 0.53650826
-2.0389636 1.872297 0.53808141
-2.3555083 2.44859 0.53813463
-1.6496831 1.1602768 0.54041415
-1.652549 1.1796221 0.54403764
-1.6647985 1.1857363 0.54766113
-1.6611768 1.200725 0.54921407
-1.8308599 1.5044202 0.54708099
-1.8353006 1.5112917 0.54888058
-2.0528934 1.8890545 0.54227924
-2.0683625 1.9301291 0.54991156
-2.3661926 2.4657187 0.54126334
-1.6630474 1.2047303 0.55024934
-1.8487548 1.5408708 0.55562907
-1.8591055 1.5527997 0.5592283
-2.073256 1.930638 0.5506748
-2.4022534 2.5323319 0.55283946
-2.4086623 2.5453084 0.55502951
-1.6857274 1.2391955 0.56060207
-1.694839 1.2626053 0.5662961
-1.8706933 1.581418 0.56552696
-1.8809315 1.5934532 0.56912619
-2.1011217 1.9841551 0.56174171
-2.1150782 2.000828 0.56593949
-2.4546628 2.6267829 0.56942153
0.14725608 -2.1489751 0.5771665
0.16173513 -2.1459968 0.57664889
0.148329 -2.1372828 0.57406068
-1.7114319 1.2919987 0.57457829
-1.7190944 1.301084 0.57768416
-1.9025099 1.6312243 0.57857406
-1.8993227 1.6319457 0.57812423
-2.1382647 2.0476577 0.57547992
-2.1378934 2.0508826 0.57586157
-1.7361817 1.3312535 0.58622515
-1.9281309 1.6760988 0.5898217
-2.1693547 2.1059246 0.58769172
-2.5019388 2.7122741 0.58443922
-2.5071244 2.7236128 0.58631647
-1.7481413 1.3584418 0.59321326
-1.7525761 1.365326 0.59528387
-1.9293134 1.6806771 0.59072149
-2.1784065 2.1191466 0.59074467
-2.1979723 2.1637137 0.59952188
-1.766166 1.3918329 0.60253078
-1.7765908 1.4035705 0.60667187
-1.9500035 1.7191591 0.60016942
-1.954044 1.726361 0.601969
-2.2054877 2.1756661 0.60219324
-2.5520608 2.8056614 0.60070843
-2.5682027 2.8283617 0.60508859
-1.7880939 1.4294615 0.61340117
-1.8029283 1.4449344 0.61909521
-1.9800838 1.7703984 0.61321658
-1.9869368 1.7802738 0.61591601
-2.2314429 2.2275517 0.6128785
-2.249929 2.2507141 0.61860281
-1.8243278 1.4799486 0.62944794
-2.0109847 1.8234495 0.62671363
-2.0148432 1.8307964 0.62851328
-2.6155062 2.9160531 0.62041914
-2.6235027 2.9301069 0.62292212
-1.8290321 1.4864137 0.63151848
-1.8409703 1.5175788 0.63928306
-1.8393104 1.5135168 0.63824779
-2.0346849 1.872627 0.6384111
-2.2779255 2.3059261 0.63005131
-2.2837791 2.316699 0.63234103
-2.3169842 2.3776197 0.64531606
-2.3209198 2.3874879 0.64722413
-2.6780589 3.0269952 0.64012986
-2.6866539 3.0431254 0.64294571
-1.8637506 1.5566809 0.65067112
-1.8728309 1.5849072 0.65740043
-2.0651417 1.9257753 0.65190816
-2.0691566 1.9328978 0.65370774
-1.8844304 1.5981127 0.66205913
-2.0930533 1.9786102 0.66495532
-2.0998156 1.9884762 0.66765475
-2.3601837 2.4560227 0.66210729
-2.3694088 2.4716594 0.66554183
-1.907164 1.6369482 0.67344719
-1.915701 1.6477627 0.67707068
-2.4023983 2.5351417 0.67889845
-1.9335743 1.6832013 0.68690574
-2.129833 2.0417221 0.68115181
-2.144917 2.0597777 0.68655062
-2.4114377 2.550915 0.68233299
-1.9405456 1.6928449 0.69001162
-2.1686244 2.1081591 0.69824809
-2.4556844 2.627877 0.69912422
-1.9675122 1.73826 0.70347023
-2.1761868 2.1199474 0.70139736
-2.4738913 2.6538517 0.70523006
-1.9864753 1.777986 0.71434063
-1.9874882 1.7826456 0.7153759
-2.2061441 2.1770735 0.71556926
-2.5091202 2.7229185 0.71973157
-2.2275727 2.226018 0.72704178
-2.5235431 2.7443314 0.72469258
-2.0197883 1.8333601 0.730905
-2.0307293 1.8471733 0.73556381
-2.2358656 2.2397709 0.73064101
-2.0424738 1.880125 0.74384594
-2.0547035 1.8953618 0.74902231
-2.2680991 2.2983844 0.74548781
-2.27896 2.3150418 0.74998683
-2.5724025 2.8339829 0.74396431
-2.0758998 1.9378414 0.76092798
-2.0869071 1.9515275 0.76558679
-2.3131561 2.3770101 0.76573336
-2.6215198 2.925838 0.76361769
-2.6346707 2.9456849 0.768197
-2.3238249 2.3938165 0.77023244
-2.1168623 2.0056689 0.78137469
-2.3585734 2.4577792 0.78642887
-2.6790223 3.0323455 0.7865147
-2.6828671 3.0420444 0.78842276
-2.1367981 2.0505478 0.79353923
-2.143364 2.0604446 0.79664505
-2.3730869 2.4789593 0.79227757
-2.1722722 2.1139185 0.8121742
-2.1825051 2.1283307 0.81683296
-2.413691 2.5532973 0.81117356
-2.4516625 2.6272471 0.82961947
-2.2110889 2.1819522 0.83236206
-2.2170446 2.1924164 0.83546793
-2.4608626 2.642648 0.83366859
-2.2517896 2.2533617 0.85358524
-2.2576129 2.2639267 0.85669106
-2.5084767 2.7260365 0.85526395
-2.5232348 2.746881 0.86111259
-2.2885489 2.3243787 0.8740319
-2.5640264 2.8257437 0.88090831
-2.5785663 2.8467565 0.88675708
-2.3241935 2.3908553 0.89344335
-2.3306856 2.4034002 0.89706683
-2.6240118 2.9317064 0.90835232
-2.3649316 2.4669888 0.91570181
-2.6430089 2.9591606 0.91600066
-2.3779376 2.4866312 0.9219135
-2.6769824 3.033236 0.93399686
-2.4219689 2.5620556 0.94468951
-2.4320912 2.5790672 0.94986594
-2.4725218 2.6523826 0.97160673
-2.4907956 2.6776018 0.97988898
-2.5284653 2.7506475 1.0011121
-2.5321124 2.7604125 1.0037004
-2.5805578 2.8469574 1.0295821
-2.5910342 2.8635333 1.0347586
-2.6340015 2.9470043 1.0590875
-2.6468625 2.9665999 1.0652993
-2.676481 3.0358713 1.0844518
-2.6962693 3.0647802 1.0937693
