# .PCD v0.7 - Point Cloud Data file format
VERSION 0.7
FIELDS x y z
SIZE 4 4 4
TYPE F F F
COUNT 1 1 1
WIDTH 972
HEIGHT 1
VIEWPOINT 0 0 0 1 0 0 0
POINTS 972
DATA ascii
-2.0354209 -0.17181607 -0.25080714
-2.0484998 -0.1443238 -0.25214767
-1.3091018 -1.4869759 -0.24325122
-1.3194506 -1.4778007 -0.24325122
-1.3277636 -1.4676603 -0.24300748
-1.3352919 -1.4554307 -0.24252
-1.34542 -1.4460734 -0.24252
-1.3507714 -1.4329031 -0.24178879
-1.3579986 -1.4205682 -0.24130133
-1.3476833 -1.4276292 -0.24105757
-1.3534992 -1.4138839 -0.24032637
-1.3728645 -1.3950881 -0.24032637
-1.3825709 -1.3854694 -0.24032637
-1.3603269 -1.4017891 -0.23983888
-1.3593476 -1.4027386 -0.23983888
-1.3691078 -1.393214 -0.23983888
-1.3788005 -1.3836223 -0.23983888
-1.3837373 -1.3674119 -0.23886393
-1.3908811 -1.357304 -0.23862019
-1.3875632 -1.3521765 -0.23788899
-1.3986465 -1.3450084 -0.23825458
-1.4103967 -1.3370136 -0.23862019
-1.4051437 -1.3338982 -0.23788899
-1.4258831 -1.2969999 -0.23667029
-1.4346793 -1.2872633 -0.23667029
-1.4416984 -1.2764046 -0.23642655
-1.4512231 -1.2473682 -0.23496412
-1.4614108 -1.2384895 -0.23520786
-1.4639277 -1.2231659 -0.23423289
-1.4828931 -1.2064042 -0.23472038
-1.490356 -1.1940001 -0.23447664
-1.4947147 -1.1821494 -0.23398916
-1.4939814 -1.1798757 -0.23374543
-1.4997998 -1.169245 -0.23350169
-1.5213702 -1.1344079 -0.2330142
-1.5334578 -1.1112616 -0.23252672
-1.5450026 -1.0951381 -0.23252673
-1.5514052 -1.0756474 -0.2317955
-1.5539595 -1.0614309 -0.2310643
-1.5616068 -1.0501477 -0.2310643
-1.5592265 -1.0501289 -0.23082055
-1.5792621 -1.030687 -0.23155177
-1.5814093 -1.0164165 -0.23082055
-1.5847856 -1.0025052 -0.23025183
-1.5956773 -0.99386591 -0.23082055
-1.6053892 -0.98571098 -0.23130804
-1.1259689 -1.8149416 -0.1868619
-1.1478215 -1.7941089 -0.18633896
-1.1570628 -1.7810397 -0.18581605
-1.1700873 -1.7725103 -0.18581605
-1.1666566 -1.7699995 -0.18546741
-1.1859612 -1.7450917 -0.18459587
-1.190424 -1.7275523 -0.18355
-1.1967455 -1.7110364 -0.18267845
-1.1874033 -1.7199544 -0.18285275
-1.2086617 -1.7026399 -0.18267845
-1.1970953 -1.7083596 -0.18250412
-1.2249613 -1.6736985 -0.18145826
-1.2277236 -1.6543379 -0.18023807
-1.2265017 -1.650282 -0.17988946
-1.2377059 -1.6418955 -0.17988946
-1.2461483 -1.6304843 -0.17954083
-1.2341629 -1.6395755 -0.17954083
-1.2520535 -1.6158841 -0.17884357
-1.2545661 -1.5936974 -0.17744908
-1.2660736 -1.5871205 -0.17762339
-1.2721107 -1.5720468 -0.17692617
-1.28179 -1.561588 -0.17675185
-1.2926607 -1.5526015 -0.17675185
-1.2962914 -1.5339533 -0.17570597
-1.3017819 -1.5188154 -0.17500873
-1.2981303 -1.5166966 -0.17466012
-1.3123535 -1.5096902 -0.17500873
-1.3058124 -1.5048155 -0.17431147
-1.3169383 -1.4950881 -0.17431147
-1.3266958 -1.4864367 -0.17431147
-1.3276223 -1.4641638 -0.17291699
-1.3365415 -1.4560264 -0.17291699
-1.3431051 -1.4418159 -0.17239405
-1.3321644 -1.4492257 -0.17221974
-1.3510199 -1.4316641 -0.17221974
-1.3492821 -1.4278245 -0.17187113
-1.3635322 -1.4031308 -0.17117387
-1.3754814 -1.3970163 -0.1715225
-1.3815819 -1.3825467 -0.17099957
-1.3778017 -1.3806902 -0.17065094
-1.3845725 -1.3682371 -0.17030232
-1.4042472 -1.3480369 -0.17030232
-1.4097975 -1.3364456 -0.16995369
-1.4151888 -1.3219948 -0.16943076
-1.4020485 -1.3272432 -0.16890782
-1.4193016 -1.308777 -0.16890782
-1.4273832 -1.2969974 -0.16873351
-1.4321746 -1.2827631 -0.16821058
-1.4376651 -1.2705973 -0.16786195
-1.4419947 -1.2566022 -0.16733903
-1.4537545 -1.2491016 -0.16768764
-1.4574471 -1.2355682 -0.16716471
-1.4638332 -1.221786 -0.16681609
-1.4681947 -1.2102864 -0.16646746
-1.4690392 -1.2092613 -0.16646746
-1.4739347 -1.1969783 -0.16611883
-1.485365 -1.1891506 -0.16646746
-1.4932189 -1.1792736 -0.16646746
-1.4957359 -1.1631417 -0.16577022
-1.5019367 -1.1518526 -0.16559592
-1.5177746 -1.1309016 -0.16559592
-1.5066638 -1.1390669 -0.16524729
-1.5344485 -1.111572 -0.16577022
-1.5234402 -1.1198972 -0.16542161
-1.5289599 -1.1055628 -0.16507298
-1.5329186 -1.0932186 -0.16472435
-1.5440578 -1.0843769 -0.16507298
-1.5369703 -1.0806015 -0.16437572
-1.5463016 -1.0707093 -0.16455004
-1.56234 -1.0649574 -0.16542161
-1.5583051 -1.0638011 -0.16507298
-1.5656939 -1.052896 -0.16507298
-1.5596292 -1.0476323 -0.16437572
-1.5602585 -1.0323215 -0.16367848
-1.5597178 -1.0331382 -0.16367848
-1.5741047 -1.0257542 -0.16437572
-1.566714 -1.0224975 -0.16367848
-1.5808728 -1.015292 -0.16437572
-1.59129 -1.0063608 -0.16472435
-1.5952411 -0.99256384 -0.16437572
-1.5827554 -0.99748629 -0.16367848
-1.6073428 -0.98433733 -0.16489866
-1.5930666 -0.98851323 -0.16402711
-2.278223 0.24025431 -0.1200587
-2.2807715 0.25381395 -0.12026804
-2.2908444 0.27113909 -0.12089607
-2.2826266 0.27259097 -0.12047738
-2.2926073 0.28962341 -0.12110542
-2.3182454 0.30931988 -0.12257081
-2.3027284 0.30479506 -0.12173345
-2.3260605 0.32587287 -0.12309419
-2.3345971 0.34370029 -0.12366988
-2.3353214 0.359023 -0.12382689
-2.3309968 0.36085767 -0.12361754
-1.1333125 -1.8235792 -0.11252232
-1.1548009 -1.8029364 -0.11220831
-1.1382389 -1.8039985 -0.11178961
-1.1612905 -1.786865 -0.11168494
-1.1581795 -1.7793583 -0.11126626
-1.1644516 -1.7633048 -0.1107429
-1.1745101 -1.7518139 -0.11053355
-1.1819118 -1.7371743 -0.11011486
-1.1934789 -1.7268206 -0.11001018
-2.2554986 0.2060605 -0.11869796
-2.2640982 0.22119769 -0.11922131
-2.2685823 0.23643626 -0.11953534
-2.2725656 0.25531018 -0.11984935
-1.1900043 -1.7243657 -0.10980085
-1.1967307 -1.7075238 -0.10927749
-1.2044102 -1.6947703 -0.10896347
-1.2153442 -1.6820211 -0.10875413
-1.2012556 -1.6872104 -0.10854478
-1.2118326 -1.6796297 -0.10854478
-1.2217515 -1.6674792 -0.10833544
-1.2327838 -1.6593397 -0.10833544
-1.2358632 -1.6370714 -0.10749806
-1.2451946 -1.6274707 -0.1073934
-1.2509654 -1.6104125 -0.10687003
-1.2498409 -1.6112853 -0.10687003
-1.2616184 -1.6020803 -0.10687003
-1.2672317 -1.5874345 -0.10645135
-1.274079 -1.5716729 -0.10603265
-1.2813938 -1.5605497 -0.10582332
-1.2824829 -1.5596547 -0.10582332
-1.2907816 -1.5475959 -0.10561397
-1.2897005 -1.5484968 -0.10561397
-1.3015543 -1.5385468 -0.10561397
-1.2979022 -1.5364035 -0.10540463
-1.3085965 -1.5273054 -0.10540463
-1.3139868 -1.512102 -0.10498594
-1.3124199 -1.5081711 -0.10477659
-1.3182991 -1.4950554 -0.10446258
-1.3247111 -1.4813485 -0.10414857
-1.3432369 -1.4605029 -0.10399155
-1.3316958 -1.4696867 -0.10393922
-1.3507246 -1.4494888 -0.10383455
-1.3462858 -1.4427043 -0.10341586
-1.3489621 -1.4264888 -0.1028925
-1.3565674 -1.4151111 -0.10273549
-1.3703864 -1.4087075 -0.10299717
-1.3652276 -1.4053662 -0.10268316
-1.3732681 -1.3933066 -0.10252614
-1.3818935 -1.3833414 -0.10247381
-1.3757964 -1.3753163 -0.10195045
-1.3834651 -1.3647592 -0.10184579
-1.3920003 -1.353189 -0.10174111
-1.3959188 -1.3405101 -0.10142709
-1.3867623 -1.3499805 -0.10142709
-1.4105251 -1.333868 -0.10174111
-1.4081438 -1.3334788 -0.10163644
-1.3954127 -1.3381529 -0.10132242
-1.4174186 -1.3236159 -0.10163644
-1.411039 -1.315815 -0.10111307
-1.4178092 -1.3055705 -0.10100841
-1.4219394 -1.2906929 -0.10064206
-1.4321067 -1.2809011 -0.1006944
-1.4297241 -1.2805682 -0.10058971
-1.4407923 -1.2711234 -0.1006944
-1.4384074 -1.2708067 -0.10058971
-1.4472446 -1.2607335 -0.10058971
-1.4753662 -1.2136059 -0.1001187
-1.4839481 -1.2046825 -0.10017103
-1.4468124 -1.2413834 -0.09990935
-1.4630241 -1.2206774 -0.099857017
-1.4535856 -1.2288102 -0.099752344
-1.4723768 -1.1935844 -0.099333659
-1.4779205 -1.1819221 -0.099176645
-1.4861367 -1.1715746 -0.099176645
-1.495856 -1.162397 -0.099281326
-1.5046271 -1.1526641 -0.099333659
-1.5139315 -1.1437323 -0.099438325
-1.506559 -1.1369241 -0.098914966
-1.5148671 -1.1275034 -0.098967299
-1.5178698 -1.1133569 -0.098653287
-1.5271282 -1.1040359 -0.09875796
-1.5381476 -1.0955312 -0.098967299
-1.5461972 -1.0858793 -0.099019639
-1.5385902 -1.0793346 -0.098496281
-1.5433435 -1.0672681 -0.098339275
-1.551121 -1.0577065 -0.098391607
-1.5629785 -1.0490901 -0.098653287
-1.5676746 -1.0366383 -0.098496281
-1.5715265 -1.0234883 -0.098286942
-1.5748301 -1.0110229 -0.098077588
-1.5859256 -1.0010316 -0.098286942
-1.5755353 -1.0099233 -0.098077588
-1.595679 -0.99109793 -0.09844394
-1.5839406 -0.99668896 -0.098077588
-1.6024698 -0.98199457 -0.098496281
-1.5928754 -0.9899354 -0.098286942
-1.604352 -0.97891641 -0.098496281
-0.7141422 -2.5681496 -0.046528116
-1.1246505 -1.8366992 -0.037592482
-1.129629 -1.8148251 -0.037313245
-1.1555381 -1.7746239 -0.0369642
-1.1740206 -1.7504246 -0.036789671
-1.2141912 -1.6810431 -0.036196291
-1.215258 -1.6580099 -0.035882145
-1.2429863 -1.6222355 -0.035672721
-1.6134707 -0.97215617 -0.032880332
-2.2508199 0.17556217 -0.039407536
-2.2450511 0.17235312 -0.039302818
-2.2575092 0.19194925 -0.039547153
-2.2663596 0.20545696 -0.039721675
-2.2501762 0.20676225 -0.039442439
-1.1533111 -1.8117318 0.037487768
-1.1582489 -1.7931248 0.03726089
-1.1697164 -1.7820786 0.037208531
-1.1640875 -1.7762045 0.037068911
-1.1765225 -1.7667913 0.037051462
-1.191761 -1.73597 0.036754768
-1.2004216 -1.7226857 0.036650054
-1.1989179 -1.7237326 0.036650054
-1.2053239 -1.7058094 0.036458079
-1.2135507 -1.6938206 0.036370814
-1.2290356 -1.6627667 0.036091577
-1.2394586 -1.6550118 0.036091577
-1.2482122 -1.6408887 0.035986863
-1.233415 -1.6445473 0.035882145
-1.2422283 -1.63539 0.035847243
-1.2554045 -1.6278231 0.035882145
-1.2673776 -1.5955981 0.035568006
-1.2764013 -1.5858226 0.035533097
-1.2902218 -1.5590563 0.035323672
-1.2985033 -1.5469476 0.03525386
-1.3092705 -1.5141315 0.034939718
-1.3178339 -1.5040264 0.034904815
-1.3283017 -1.4947897 0.034904815
-1.3402395 -1.4651803 0.034660477
-1.3464476 -1.4540312 0.034590669
-1.354331 -1.4412079 0.034520861
-1.3420234 -1.4472259 0.034451049
-1.3580945 -1.4266387 0.034381241
-1.3652434 -1.4142452 0.034311432
-1.3754508 -1.4043195 0.034311432
-1.3740687 -1.3832124 0.034032192
-1.3851117 -1.3749943 0.034067098
-1.3946769 -1.3652911 0.034067098
-1.4029719 -1.3538878 0.034032192
-1.3991501 -1.352088 0.033962384
-1.4100026 -1.3436669 0.033997286
-1.406595 -1.3385465 0.033892576
-1.4125259 -1.3264503 0.033822764
-1.4180839 -1.3131598 0.033735503
-1.4262515 -1.3028021 0.03371805
-1.4363456 -1.2946539 0.033752955
-1.4451247 -1.2848469 0.033752955
-1.4400399 -1.2785273 0.033613335
-1.4454796 -1.2663126 0.033543527
-1.4512579 -1.2535765 0.033473715
-1.4617136 -1.2444558 0.033508621
-1.4721133 -1.2352498 0.033543523
-1.4681884 -1.2337046 0.033473715
-1.4783057 -1.2247 0.033508621
-1.4819617 -1.2108138 0.033403907
-1.4729967 -1.2185693 0.033369001
-1.4828067 -1.2097789 0.033403907
-1.4912164 -1.1993974 0.033403907
-1.487264 -1.1979295 0.033334095
-1.4975717 -1.1882379 0.033369001
-1.5094681 -1.1632868 0.033264287
-1.5121735 -1.1498836 0.033159573
-1.5095906 -1.1466726 0.033089764
-1.5207607 -1.1385025 0.033159573
-1.5167657 -1.1371648 0.033089764
-1.5262755 -1.1277368 0.033124667
-1.5360205 -1.1178288 0.033159573
-1.5438833 -1.106944 0.033159573
-1.5449457 -1.0916579 0.033019952
-1.5549912 -1.0825589 0.033072311
-1.556273 -1.0683976 0.032950144
-1.5670067 -1.0597472 0.033019952
-1.5715861 -1.0457417 0.032950144
-1.5749624 -1.0333773 0.032880332
-1.5860339 -1.0236968 0.032950144
-1.5786012 -1.0204617 0.032810524
-1.5688132 -1.028168 0.032740716
-1.5894136 -1.0110087 0.032880332
-1.5994729 -1.0025696 0.032950144
-1.6071247 -0.99025697 0.032950144
-1.5980016 -0.99737954 0.032880332
-2.2451835 0.19524382 0.039337724
-2.2658319 0.23175289 0.039756581
-2.2763884 0.24608907 0.039966013
-2.2820301 0.23059243 0.040035821
-2.2801054 0.24890664 0.040035821
-2.2961886 0.26689604 0.040349964
-2.2885208 0.2635763 0.040210344
-2.3043904 0.28253502 0.040524486
-2.3084676 0.29817888 0.040629201
-2.318069 0.30188724 0.040803727
-2.3281252 0.31725729 0.041013155
-2.3159051 0.31806305 0.040803727
-2.3266385 0.33506691 0.041030608
-2.3468263 0.35576171 0.041432012
-2.339288 0.35211352 0.041292395
-1.4534074 -1.2351984 0.099961683
-1.4746 -1.203512 0.099752344
-1.4860781 -1.1956921 0.099961683
-1.4905195 -1.1805245 0.099647671
-1.480685 -1.1896502 0.099542998
-1.4865655 -1.1790825 0.099438325
-1.4943821 -1.1675382 0.099385992
-1.5050721 -1.1586429 0.099542998
-1.499719 -1.1557736 0.099228986
-1.5120281 -1.1478996 0.099490657
-1.5167069 -1.135056 0.099281318
-1.5242333 -1.1080289 0.098757952
-1.5364705 -1.099599 0.099019639
-1.5292088 -1.0960176 0.098600946
-1.5411868 -1.0877918 0.098862633
-1.5509205 -1.0791224 0.099019639
-1.543285 -1.072611 0.098496281
-1.5507354 -1.0618111 0.098496281
-1.5499936 -1.0628933 0.098496281
-1.5614221 -1.0531924 0.09870562
-1.5674503 -1.0423973 0.098653287
-1.575525 -1.0319759 0.09870562
-1.5805671 -1.0205595 0.098600946
-1.5762435 -1.0162089 0.098286942
-1.5842829 -1.0073565 0.098391607
-1.5908848 -0.99313051 0.098286942
-1.6044888 -0.9882465 0.09875796
-1.1983583 -1.7210052 0.10990552
-1.1866161 -1.7291223 0.10990552
-1.206476 -1.7055476 0.10948683
-1.2115133 -1.687242 0.1088588
-1.2203256 -1.675941 0.10864946
-1.2319844 -1.6661471 0.10859712
-1.2167884 -1.6686331 0.10823077
-1.2451297 -1.6350582 0.10770741
-1.2535049 -1.6236026 0.10749806
-1.2604444 -1.6080827 0.10707937
-1.2593219 -1.6089618 0.10707937
-1.2716402 -1.5992439 0.10707937
-1.2655556 -1.5938746 0.10666069
-1.2763757 -1.5852233 0.10666069
-1.2809246 -1.5660987 0.10603265
-1.2907391 -1.5580199 0.10603265
-1.2892759 -1.5540441 0.10582332
-1.2975218 -1.5419492 0.10561397
-1.3082551 -1.5328531 0.10561397
-1.2938755 -1.5397962 0.10540463
-1.3020025 -1.5276855 0.10519528
-1.3118595 -1.5165896 0.1050906
-1.320309 -1.5065848 0.10498594
-1.311082 -1.4934248 0.10414857
-1.3201801 -1.4853882 0.10414857
-1.3318058 -1.4749734 0.10414857
-1.3278438 -1.4731679 0.10393922
-1.3387344 -1.4632779 0.10393922
-1.3474317 -1.4525502 0.10383455
-1.3529322 -1.4392157 0.10352053
-1.34983 -1.4339079 0.10320652
-1.3544303 -1.421298 0.1028925
-1.366694 -1.4122902 0.10299717
-1.3540434 -1.4189073 0.10278783
-1.361544 -1.4089352 0.10268316
-1.3709242 -1.3970126 0.10257848
-1.3683075 -1.3967813 0.10247381
-1.3768594 -1.3855379 0.10236914
-1.386269 -1.3747053 0.1023168
-1.3865513 -1.3559165 0.10163644
-1.3943112 -1.3450603 0.10153177
-1.4029435 -1.3346057 0.10147943
-1.4129555 -1.3254614 0.10153177
-1.4217147 -1.3160619 0.10153177
-1.4153003 -1.30829 0.10100841
-1.4212211 -1.2959347 0.10079906
-1.4188409 -1.29558 0.1006944
-1.4302335 -1.2859814 0.10079906
-1.4523387 -1.2700837 0.10111307
-1.435521 -1.2740663 0.10058972
-1.4394312 -1.260571 0.1002757
-1.454143 -1.2542999 0.10064206
-1.4540657 -1.237507 0.10006636
-1.463312 -1.2265596 0.10006636
-1.4862771 -1.2113147 0.10048504
-1.4721843 -1.2174639 0.1001187
-1.1328226 -1.8356291 0.11304568
-1.1507064 -1.8055526 0.1122083
-1.1483735 -1.8046705 0.11210363
-1.1587764 -1.7932541 0.11189428
-1.1690761 -1.781781 0.11168494
-1.1637387 -1.7709497 0.11105692
-1.1748431 -1.7636027 0.11105692
-1.17164 -1.7561362 0.11063822
-1.1813272 -1.7448128 0.11042888
-1.1923482 -1.7348771 0.1103242
-1.1756344 -1.7390184 0.11001018
-1.2010022 -1.7215966 0.11001018
-2.1758406 0.071419246 0.11409239
-2.1932502 0.087323368 0.11503445
-2.1873531 0.084794596 0.11472043
-2.2646694 0.21527144 0.11922131
-2.2728839 0.23367666 0.11974468
-2.2691936 0.23049614 0.11953534
-2.2814281 0.2478424 0.12026804
-2.2831528 0.250449 0.12037271
-2.2955146 0.26559967 0.12110542
-2.2872999 0.26707667 0.12068672
-2.2935057 0.28241968 0.12110542
-2.3035183 0.29876587 0.12173345
-2.3150866 0.30273154 0.12236147
-2.3211648 0.31754729 0.12278017
-2.3286889 0.32147524 0.12319885
-2.3402236 0.33973324 0.12393155
-2.3307524 0.33545145 0.12340819
-2.3481023 0.35469759 0.12445491
-2.3398316 0.35595465 0.12403623
-1.4076967 -1.3386582 0.16995369
-1.4152913 -1.3262594 0.16969222
-1.4267099 -1.3183756 0.16995369
-1.4324783 -1.3061994 0.16960508
-1.4452829 -1.2800281 0.16890782
-1.4333469 -1.2874242 0.16855921
-1.4428983 -1.2797147 0.16873352
-1.4512689 -1.2687011 0.16864637
-1.4615043 -1.2584239 0.16873352
-1.4591162 -1.2581432 0.16855921
-1.4787884 -1.2224909 0.16786195
-1.4682373 -1.2289439 0.16751333
-1.4719586 -1.2151166 0.1669904
-1.4846199 -1.2091017 0.16751333
-1.5000019 -1.1867572 0.16733903
-1.5003949 -1.17013 0.16646746
-1.5128592 -1.1637986 0.1669904
-1.5179733 -1.1505355 0.16664177
-1.526967 -1.1419019 0.16681609
-1.5141965 -1.1489215 0.16629316
-1.5243725 -1.1387175 0.16646746
-1.5338895 -1.1292288 0.16664177
-1.5336719 -1.1126434 0.16577022
-1.5393972 -1.1012876 0.1655959
-1.5499234 -1.0933508 0.16594453
-1.5591549 -1.0836409 0.16611885
-1.542542 -1.086532 0.16507298
-1.5661402 -1.0717572 0.16603169
-1.554812 -1.0794157 0.1655959
-1.5631222 -1.0531486 0.16489866
-1.5780047 -1.048821 0.16577022
-1.567116 -1.0400074 0.16455004
-1.5824965 -1.0347681 0.16542161
-1.5786207 -1.033414 0.16507298
-1.5913571 -1.0247736 0.1655959
-1.5857967 -1.022368 0.16507298
-1.5960828 -1.0136863 0.16542161
-1.5880976 -1.0039537 0.16437572
-1.5960647 -0.99500942 0.16455004
-1.6169617 -0.98003829 0.16542161
-1.6078808 -0.98917484 0.16516013
-1.2606709 -1.6066384 0.17866927
-1.2694383 -1.5959029 0.17840779
-1.2804769 -1.5857795 0.17832063
-1.2743669 -1.5804694 0.17762341
-1.2934932 -1.5596813 0.17727478
-1.300298 -1.5436068 0.17657752
-1.3060917 -1.5308591 0.17605458
-1.3178091 -1.520784 0.17605458
-1.3045716 -1.5269176 0.17570597
-1.3115319 -1.5156773 0.17535736
-1.3360088 -1.4780717 0.17431147
-1.3409101 -1.4628339 0.17361423
-1.3382877 -1.4625338 0.17343993
-1.3471106 -1.4516944 0.17326561
-1.3577161 -1.4417801 0.17326561
-1.3743148 -1.4009567 0.17169681
-1.387845 -1.3931845 0.17204544
-1.3752925 -1.399997 0.17169681
-1.3784413 -1.3856779 0.17099957
-1.4037992 -1.351378 0.17047663
-1.4100753 -1.3390477 0.17012802
-2.0288811 -0.21467665 0.17849496
-2.0341902 -0.20196228 0.17884359
-2.0473223 -0.19028485 0.17988946
-1.1553963 -1.8129115 0.18808208
-1.1601343 -1.7932951 0.1868619
-1.1874889 -1.7512789 0.18511879
-1.1948646 -1.7365899 0.18442155
-1.2310234 -1.6618125 0.18093532
-1.2413979 -1.6515852 0.18076101
-1.2390485 -1.6508579 0.1805867
-1.2493365 -1.6405824 0.1804124
-2.0515213 -0.1881475 0.18023807
-2.0676267 -0.16345231 0.18145825
-2.0599074 -0.15994795 0.18076101
-2.0628586 -0.14714548 0.18093532
-2.0926228 -0.11882787 0.18337567
-2.1059573 -0.091582239 0.18442154
-2.1065323 -0.077243216 0.18442155
-2.1120043 -0.062498078 0.18485734
-2.1333334 -0.046922561 0.1866876
-2.1233065 -0.049668062 0.18581605
-2.1315701 -0.034974124 0.18651329
-2.1276324 -0.031937718 0.18616466
-2.1924336 0.072156534 0.19191694
-2.1918383 0.088416576 0.19191694
-2.187933 0.086346261 0.19156833
-2.2673621 0.23290808 0.19941235
-2.285639 0.24951072 0.20115545
-2.2932539 0.25317788 0.20185271
-2.3016531 0.26753122 0.20272426
-2.3092868 0.27087015 0.2034215
-2.3173757 0.28700274 0.20429306
-2.3211362 0.30475879 0.204816
-2.3232346 0.31906968 0.20516461
-2.3287637 0.32272813 0.20568755
-2.3386979 0.33784491 0.20673342
-2.3382833 0.34070176 0.20673342
-2.3500714 0.35625362 0.2079536
-2.3496342 0.3591249 0.2079536
-0.7162379 -2.5967443 0.23566914
-1.3767209 -1.3800894 0.23935141
-1.3825436 -1.3686187 0.23886393
-1.3901702 -1.35519 0.23837645
-1.4007932 -1.347072 0.23862019
-1.405377 -1.333652 0.23788898
-1.4156396 -1.3256596 0.23813272
-1.4107652 -1.3192475 0.23715776
-1.4239631 -1.2961603 0.23642655
-1.4329773 -1.2861876 0.23642655
-1.4416983 -1.2764045 0.23642655
-1.4468353 -1.2630451 0.23581719
-1.4529243 -1.2514782 0.23545158
-1.4569776 -1.236044 0.23459852
-1.4676406 -1.2280091 0.23496412
-1.4777097 -1.2189959 0.23520786
-1.4840111 -1.2081754 0.23496412
-1.478693 -1.2021297 0.23398916
-1.4862171 -1.1928151 0.23398916
-1.4937757 -1.1801361 0.23374543
-1.4839512 -1.1892947 0.23350169
-1.4913945 -1.1799474 0.23350169
-1.5108715 -1.1614286 0.23398916
-1.4992206 -1.1683732 0.23337981
-1.5189427 -1.1508528 0.23398916
-1.5083305 -1.1582195 0.23350169
-1.510048 -1.1428696 0.23252673
-1.5203797 -1.1357349 0.2330142
-1.5179899 -1.1322997 0.23252673
-1.5290565 -1.1240258 0.2330142
-1.5336515 -1.1109946 0.23252673
-1.5248734 -1.1146046 0.23191738
-1.5409861 -1.1007986 0.23252673
-1.5514985 -1.0928408 0.2330142
-1.5455765 -1.0874591 0.23203924
-1.5487711 -1.0742204 0.2314299
-1.5545018 -1.0623963 0.23118615
-1.5643504 -1.0531819 0.23155177
-1.5765364 -1.0456641 0.232283
-1.5851886 -1.0361335 0.23252673
-1.5788528 -1.0167214 0.23057681
-1.5947298 -1.0065888 0.23155177
-1.5845866 -1.0040575 0.23033309
-1.611637 -0.9907105 0.232283
-1.6066018 -0.99885529 0.232283
-1.5957685 -0.99559718 0.23094243
-1.6106364 -0.98854673 0.23203924
-1.6084569 -0.98450536 0.23155177
-1.2671988 -1.5919458 0.24983218
-1.2873038 -1.5500147 0.2473948
-1.2871164 -1.5475891 0.24715105
-1.2954328 -1.536742 0.24678545
-1.3035493 -1.5246432 0.24629796
-1.3116827 -1.513714 0.24593236
-1.3088361 -1.5082999 0.24520114
-1.319223 -1.4806638 0.24349497
-1.320515 -1.4795117 0.24349497
-1.3397679 -1.4621 0.24349497
-1.3275065 -1.4678926 0.2430075
-1.3397007 -1.459468 0.24325122
-1.3445371 -1.4468946 0.24252002
-1.3545696 -1.4169805 0.24069196
-1.3637376 -1.4067769 0.2405701
-1.3740995 -1.3980495 0.24069196
-1.3799601 -1.3852694 0.24008264
-1.1861764 -1.7500008 0.25958171
-1.1748512 -1.7576239 0.25958171
-1.1862829 -1.74753 0.25933796
-1.1939068 -1.733901 0.2584849
-1.2045103 -1.7253418 0.25836304
-1.1991888 -1.7145298 0.25690058
-1.2073447 -1.7039329 0.25641313
-1.205384 -1.6980226 0.2556819
-1.2153127 -1.6884851 0.25543815
-1.2213619 -1.6718385 0.25421947
-1.2330036 -1.6632712 0.25421947
-1.2391934 -1.6462585 0.2530008
-1.2456164 -1.6339219 0.25226957
-1.243143 -1.6283184 0.25153834
-1.2508336 -1.6148916 0.25080714
-1.2484912 -1.6141945 0.25056338
-1.2633039 -1.6076808 0.25105089
-1.2597299 -1.6054391 0.25056338
-1.2695469 -1.5926133 0.25007591
-1.2792519 -1.5848284 0.25007591
-1.155314 -1.810689 0.26372528
-1.1646882 -1.7975816 0.26299405
-1.1605402 -1.7884417 0.26177537
-1.1663717 -1.7715867 0.26043481
-2.2969797 0.26861385 0.2839556
-2.3046482 0.28787607 0.28517428
-2.3222628 0.30655593 0.28761166
-2.3261328 0.32236457 0.28834289
-1.5221584 -1.1177278 0.29910272
-1.5299245 -1.1070739 0.29910272
-1.5400655 -1.099735 0.29972848
-1.5392245 -1.097513 0.29941559
-1.5471826 -1.0879834 0.29957205
-1.5551581 -1.0608571 0.29816413
-1.5617931 -1.0510647 0.29816413
-1.5726581 -1.0419078 0.29878986
-1.5608866 -1.0488727 0.29785126
-1.5818183 -1.0315681 0.29910272
-1.5894558 -1.0215886 0.29925916
-1.5763159 -1.0291564 0.29816413
-1.5970308 -1.0115532 0.29941559
-1.5875851 -1.0024655 0.29738197
-1.6042933 -0.99625534 0.29910272
-1.596859 -0.99511719 0.2980077
-1.6116887 -0.98803145 0.29941559
-1.6093152 -0.9881227 0.29910272
-2.3510282 0.35807779 0.29199898
-2.3617973 0.37914434 0.29370514
-1.3694874 -1.3918996 0.30927098
-1.3790767 -1.3810041 0.30911455
-1.3900901 -1.3727303 0.30942741
-1.3891312 -1.3737007 0.30942741
-1.3958591 -1.3612109 0.30880168
-1.3965507 -1.3434614 0.30692446
-1.4042108 -1.3311492 0.30645514
-1.4175394 -1.3241918 0.30723733
-1.4209378 -1.3089098 0.30598584
-1.4185718 -1.3085622 0.30567297
-1.4257061 -1.296385 0.30520368
-1.4387106 -1.2715216 0.30410865
-1.4451829 -1.2611578 0.30379578
-1.4553564 -1.2509198 0.30395222
-1.4445738 -1.2588508 0.30348289
-1.4658804 -1.2431568 0.30442151
-1.4592104 -1.2357506 0.30285716
-1.4652168 -1.2255462 0.3025443
-1.4703493 -1.2116325 0.3017621
-1.4831622 -1.205333 0.30270073
-1.4915407 -1.1949492 0.30270073
-1.4986581 -1.1844187 0.3025443
-1.4917314 -1.1772531 0.30097994
-1.5006571 -1.1690713 0.30129281
-1.4999137 -1.1668105 0.30097994
-1.5109558 -1.1589783 0.30160567
-1.5040817 -1.1549571 0.30035421
-1.5131953 -1.1446286 0.30051064
-1.5234261 -1.1359403 0.30097994
-1.5293349 -1.1246415 0.30066708
-1.533756 -1.1118869 0.30004135
-1.5585172 -1.0803758 0.30035421
-1.5590826 -1.0795597 0.30035421
-1.5658348 -1.0697427 0.30035421
-1.2892067 -1.5484526 0.31912637
-1.2975364 -1.5376041 0.31865704
-1.3031025 -1.522504 0.31740558
-1.3149931 -1.514863 0.31771845
-1.3214878 -1.5026304 0.31693625
-1.3254042 -1.4952073 0.31646699
-1.3292999 -1.4877859 0.31599763
-1.346615 -1.4465973 0.31302541
-1.3553257 -1.4357241 0.31271255
-1.3611557 -1.4233732 0.31193036
-1.3822969 -1.3861628 0.31005314
-1.2284957 -1.6809876 0.32976389
-1.2261686 -1.6753472 0.32882527
-1.235487 -1.664799 0.32835597
-1.2447026 -1.652977 0.32773024
-1.2588679 -1.6235077 0.32538372
-1.2653828 -1.610906 0.32444513
-1.2628435 -1.6053642 0.3235065
-1.271615 -1.594637 0.32303721
-1.2825072 -1.5871601 0.32319364
-1.2798871 -1.5816578 0.32225505
-1.1548567 -1.8078839 0.33977571
-1.1644013 -1.7923357 0.33852422
-1.1609993 -1.789834 0.33789849
-1.1713703 -1.7771521 0.3371163
-1.1794199 -1.7611319 0.33570841
-1.1868285 -1.7489905 0.33476979
-1.1824975 -1.7399925 0.33320546
-1.2064915 -1.7246475 0.33336186
-1.1912091 -1.7280455 0.33242327
-1.2137522 -1.7110759 0.33226684
-1.2141006 -1.7084061 0.331954
-1.2213758 -1.6934798 0.33070248
-1.1571828 -1.808741 0.34008855
-1.5175188 -1.1472741 0.36978784
-1.537837 -1.113209 0.36902463
-1.5463407 -1.1013662 0.36902463
-1.553992 -1.0905439 0.36902463
-1.5484114 -1.0882422 0.36787975
-1.5656607 -1.0754415 0.36921543
-1.5559713 -1.0774053 0.36787975
-1.5688802 -1.0690144 0.36902463
-1.5739367 -1.0580404 0.36864299
-1.5754647 -1.0415914 0.36711654
-1.5830708 -1.0317934 0.36730731
-1.5913284 -1.0208306 0.36749816
-1.6017361 -1.0117933 0.36826137
-1.5977108 -1.0108123 0.36749816
-1.5858381 -1.0184809 0.36635327
-1.6056046 -1.0056324 0.36826137
-1.6051505 -0.99523556 0.36711654
-1.6152387 -0.98633289 0.36787975
-1.3892617 -1.3704764 0.37932828
-1.3987954 -1.3607445 0.37932828
-1.3855112 -1.3686868 0.37856507
-1.3950326 -1.3589808 0.37856507
-1.4044861 -1.3492085 0.37856507
-1.4126797 -1.3377733 0.37818345
-1.4172174 -1.3243537 0.3770386
-1.4287903 -1.314761 0.37742022
-1.4138353 -1.3193462 0.37589374
-1.4331186 -1.3012964 0.37627536
-1.4206532 -1.3091062 0.37551212
-1.4463289 -1.2954422 0.37742022
-1.4472446 -1.278165 0.37532133
-1.4505099 -1.2640237 0.37398565
-1.4499111 -1.2617217 0.37360403
-1.4582469 -1.2520781 0.37360403
-1.4703839 -1.243891 0.37436727
-1.4665192 -1.2423791 0.37360403
-1.4736497 -1.2308524 0.37322241
-1.4804788 -1.2195444 0.37284079
-1.478297 -1.2160165 0.37207755
-1.4848046 -1.2049487 0.37169594
-1.4914391 -1.1935875 0.37131432
-1.5028191 -1.185577 0.37207758
-1.5118334 -1.1756601 0.37226838
-1.5153303 -1.1614932 0.37112349
-1.519686 -1.1476625 0.37016946
-1.530811 -1.1393696 0.3709327
-1.5270653 -1.1378251 0.37016946
-1.5347748 -1.1274043 0.37016946
-1.3021756 -1.5187376 0.38886875
-1.3127464 -1.5096099 0.38886875
-1.3078305 -1.506079 0.38772389
-1.318186 -1.4957154 0.3875331
-1.3323871 -1.4896706 0.38848713
-1.3297789 -1.4893686 0.38810554
-1.3388121 -1.4772816 0.3875331
-1.3437786 -1.4621172 0.38600662
-1.3472598 -1.4455199 0.38409853
-1.3556719 -1.4335835 0.38352609
-1.3617544 -1.4210166 0.38257205
-1.3741314 -1.4145308 0.38333529
-1.3814164 -1.4032879 0.38276285
-1.3741263 -1.3939345 0.38047317
-1.3819532 -1.3834014 0.38009155
-1.4125115 -1.3550231 0.38047317
-1.2458082 -1.6300393 0.39879084
-1.2705045 -1.6133642 0.39917243
-1.268164 -1.6127077 0.39879084
-1.255672 -1.6199698 0.39840919
-1.2744403 -1.5964634 0.39707354
-1.2762876 -1.5760849 0.39421141
-1.2875336 -1.5669109 0.39421138
-1.292872 -1.5523028 0.39268494
-1.3024099 -1.5417399 0.39230329
-1.3062222 -1.5256119 0.39039519
-1.1971115 -1.7333696 0.40947613
-1.2085805 -1.7253921 0.4094761
-1.2149096 -1.7089117 0.40756804
-1.2393054 -1.6669022 0.40375188
-1.2462105 -1.6543783 0.40260699
-1.2414538 -1.645671 0.40069893
-1.2628216 -1.626847 0.40031728
-1.174298 -1.7795646 0.41443717
-1.49518 -1.1787047 0.43955436
-1.5056057 -1.1525789 0.43775475
-1.512737 -1.1415863 0.4375298
-1.521057 -1.1321098 0.43775475
-1.5187186 -1.1287233 0.43685496
-1.5343301 -1.1074084 0.43685496
-1.5526444 -1.0883852 0.43775475
-1.5456938 -1.0847204 0.43595514
-1.5562469 -1.0763911 0.43685496
-1.5724893 -1.0384414 0.43505535
-1.5829676 -1.0295634 0.43595514
-1.5815578 -1.0137842 0.43370563
-1.6166031 -0.98716486 0.43730485
-1.6070859 -0.98405188 0.43505535
-1.64053 -0.94296545 0.43685496
-1.6306822 -0.94831806 0.43550524
-1.3882698 -1.3675873 0.44990209
-1.4107071 -1.3331069 0.4481025
-1.4228309 -1.3258829 0.4490023
-1.4190551 -1.3242171 0.4481025
-1.4251684 -1.3118875 0.44720268
-1.4413066 -1.2706833 0.44360349
-1.4504373 -1.2617357 0.44382843
-1.4592979 -1.2349496 0.44135398
-1.4702357 -1.2249541 0.44180387
-1.4740225 -1.2112069 0.44045416
-1.4842935 -1.2032452 0.44112903
-1.4930021 -1.1939832 0.44135398
-1.3235778 -1.480341 0.45845026
-1.3338799 -1.4710649 0.45845026
-1.3351635 -1.4699001 0.45845026
-1.3424977 -1.4579109 0.45755047
-1.3388412 -1.4559791 0.45665067
-1.3526428 -1.4485033 0.45755047
-1.346315 -1.4437462 0.45575082
-1.356111 -1.4345487 0.45575082
-1.3606986 -1.4194196 0.45395124
-1.3725407 -1.3915961 0.45125183
-1.3837209 -1.3832374 0.4517017
-1.3956389 -1.3767673 0.45260152
-1.2683351 -1.5882471 0.46924794
-1.2744853 -1.5732971 0.46744829
-1.285983 -1.5639131 0.46744829
-1.2913371 -1.5493611 0.46564871
-1.3052334 -1.5223038 0.46294928
-1.3149464 -1.5113391 0.46249938
-1.3050258 -1.5199139 0.46249935
-1.3248093 -1.5027013 0.46249935
-1.2157539 -1.6844451 0.47959566
-1.2231817 -1.6669891 0.47734615
-1.2336297 -1.6580575 0.47712117
-1.2419523 -1.6457334 0.47599643
-1.251655 -1.6359133 0.47554654
-1.2456855 -1.6257576 0.4728471
-1.2534858 -1.6148201 0.47194731
-1.2718774 -1.5904056 0.47014773
-1.2829499 -1.5814872 0.47014773
-1.1766685 -1.7543745 0.48769388
-1.186146 -1.7420899 0.48656911
-1.1942515 -1.7282591 0.48499444
-1.2059178 -1.7177588 0.48454455
-1.1999453 -1.7124269 0.48274496
-1.2096121 -1.7008318 0.48184517
-1.2088338 -1.6966015 0.48094535
-1.1614958 -1.7830914 0.49129307
-1.1591883 -1.7822684 0.49084321
-1.1705288 -1.7725061 0.49039328
-1.4867201 -1.1876837 0.50987357
-1.5009186 -1.1633928 0.50883824
-1.5097332 -1.1551132 0.5093559
-1.5142033 -1.1412411 0.50806183
-1.5263073 -1.1331227 0.5093559
-1.5410088 -1.1130465 0.5093559
-1.5256052 -1.1178012 0.50676769
-1.5458 -1.0829835 0.50573242
-1.5567834 -1.0739534 0.50676769
-1.5654693 -1.0646908 0.50728536
-1.5692873 -1.0521332 0.50625008
-1.5830206 -1.0135514 0.50366187
-1.6018491 -1.0091289 0.50728536
-1.594609 -1.0061235 0.50521481
-1.6065171 -0.99802476 0.50676769
-1.599005 -0.99181151 0.50417954
-1.6130867 -0.98366499 0.50625002
-1.6068532 -0.9827531 0.50469714
-1.5969297 -0.98782486 0.50314426
-1.4149704 -1.3180962 0.51815575
-1.4377582 -1.301852 0.51970869
-1.4241372 -1.3081865 0.51815575
-1.4430295 -1.2902174 0.51867342
-1.4311248 -1.2976643 0.51763809
-1.4410475 -1.2866362 0.51763809
-1.4547675 -1.2460046 0.51323819
-1.4765741 -1.2306718 0.51504993
-1.4671198 -1.2389349 0.51453227
-1.4746814 -1.2117484 0.51142645
-1.4828953 -1.2016824 0.51142645
-1.4951003 -1.1926688 0.51246172
-1.499529 -1.1808608 0.51142645
-1.5003529 -1.1798136 0.51142645
-1.504684 -1.1679945 0.51039118
-1.5388582 -1.1258614 0.51090884
-1.3573037 -1.433804 0.52902615
-1.3683692 -1.4259261 0.52954376
-1.3769438 -1.4149535 0.52902615
-1.3711897 -1.4070746 0.526438
-1.377655 -1.3953203 0.52540272
-1.385232 -1.3823339 0.52436739
-1.3957459 -1.3744719 0.52488506
-1.4025357 -1.3620026 0.52384979
-1.4113019 -1.3529173 0.52384979
-1.3123268 -1.5289562 0.53989661
-1.3070971 -1.5207148 0.53730839
-1.3189516 -1.5130081 0.537826
-1.3281691 -1.5049231 0.537826
-1.3140895 -1.5095576 0.53627306
-1.3360664 -1.4927353 0.53679073
-1.3425503 -1.4764786 0.53472012
-1.346311 -1.4625647 0.53264964
-1.3423482 -1.4557086 0.53057909
-1.3662786 -1.4412681 0.53213197
-1.3548644 -1.4493603 0.53161436
-1.3733804 -1.4291489 0.5310967
-1.2700769 -1.6087738 0.54921407
-1.2758907 -1.5942812 0.54714346
-1.2825085 -1.5815078 0.54559058
-1.2946156 -1.5716122 0.54559058
-1.2811769 -1.5776126 0.54455531
-1.2910643 -1.5695316 0.54455531
-1.3078601 -1.5454543 0.54248476
-1.3039429 -1.5386453 0.54041415
-1.2127004 -1.7001432 0.5595668
-1.2089753 -1.6980532 0.55853152
-1.2211413 -1.6869413 0.55801392
-1.2199639 -1.687793 0.55801392
-1.2288728 -1.6741335 0.55646098
-1.2353384 -1.6585412 0.55413163
-1.2439742 -1.6460238 0.55283749
-1.2551503 -1.6375175 0.55283749
-1.2647722 -1.6264282 0.55206108
-1.1855366 -1.7635996 0.56940192
-1.1698276 -1.769429 0.56836665
-1.1799984 -1.7580113 0.56733137
-1.1886747 -1.7451484 0.56577843
-1.1866269 -1.7395306 0.56422555
-1.2096882 -1.7212125 0.56370795
-1.1920924 -1.7228844 0.56137854
-1.203748 -1.7159413 0.56163734
-1.1597168 -1.8071392 0.57535481
-1.1713504 -1.796162 0.57457829
-1.1669333 -1.792123 0.57302535
-1.1806614 -1.7831088 0.57302535
