# .PCD v0.7 - Point Cloud Data file format
VERSION 0.7
FIELDS x y z
SIZE 4 4 4
TYPE F F F
COUNT 1 1 1
WIDTH 532
HEIGHT 1
VIEWPOINT 0 0 0 1 0 0 0
POINTS 532
DATA ascii
0.24588504 -2.1818016 -0.19209124
0.28967166 -2.1623504 -0.19087107
0.28710943 -2.1546524 -0.19017383
0.30176881 -2.1526482 -0.19017383
0.30253381 -2.1444926 -0.18947658
0.31504756 -2.1386623 -0.18912795
0.35859165 -2.1156287 -0.18773346
0.37070069 -2.1034257 -0.18686192
0.38301873 -2.0951416 -0.18633896
0.41095877 -2.0735943 -0.1849445
0.42542517 -2.0706747 -0.1849445
0.43724036 -2.0641391 -0.18459585
0.43785277 -2.0599358 -0.18424724
0.44993418 -2.0532513 -0.18389861
0.46392301 -2.0419641 -0.18320136
0.47700191 -2.036902 -0.18302706
0.49332482 -2.0391607 -0.18355
0.50577229 -2.0361092 -0.18355
0.50369281 -2.0202014 -0.1821555
0.51640856 -2.0149317 -0.18198121
0.54275602 -1.9976735 -0.18110962
0.55582058 -1.9940778 -0.18110964
0.56995332 -1.9942292 -0.18145825
0.57169324 -1.9937311 -0.18145825
0.57937461 -1.9749072 -0.18006375
0.58222288 -1.9782237 -0.1804124
0.62197673 -1.9619069 -0.18006375
0.6052258 -1.9587989 -0.17936651
0.61820388 -1.9547418 -0.17936651
0.63306355 -1.9541692 -0.17971513
0.63319659 -1.9499369 -0.17936651
0.6459437 -1.9457512 -0.17936651
0.656106 -1.9339346 -0.17866927
0.68705827 -1.9316165 -0.17936651
0.66962892 -1.9250754 -0.17832063
0.69476986 -1.9161453 -0.17832063
0.70813006 -1.9112482 -0.17832063
0.69371867 -1.9080484 -0.17762341
0.70702249 -1.9031588 -0.17762341
0.72004545 -1.9025313 -0.17797202
0.71854728 -1.8945764 -0.17727478
0.73319513 -1.8932298 -0.17762341
0.74785954 -1.8917707 -0.17797202
0.72900075 -1.8863075 -0.17692617
0.74361378 -1.884879 -0.17727478
0.75955749 -1.8828081 -0.17762341
0.77094209 -1.8760213 -0.17744909
0.78093982 -1.8632433 -0.17675185
0.79141861 -1.8523185 -0.17622891
0.80672938 -1.8500497 -0.17657752
0.80193543 -1.8434453 -0.17588028
0.81882048 -1.8447301 -0.17657752
0.83085734 -1.8371537 -0.17640322
0.84369707 -1.8334863 -0.17657752
0.84164053 -1.8256594 -0.17588028
0.24422769 -2.1773386 -0.11482509
0.25871301 -2.1696312 -0.11451109
0.27134418 -2.1600358 -0.11409239
0.27235162 -2.1558831 -0.11388306
0.28639895 -2.1550694 -0.1139354
0.29916659 -2.1422429 -0.1133597
0.30038461 -2.1400557 -0.11325502
0.31403077 -2.1330488 -0.11299334
0.32999679 -2.1316481 -0.11304568
0.32722479 -2.126013 -0.11273166
0.34277448 -2.1245728 -0.112784
0.35494339 -2.1063721 -0.11194662
0.36818185 -2.1030846 -0.11189428
0.39821935 -2.0915058 -0.11158027
0.40906057 -2.0792356 -0.11105692
0.41048756 -2.0769184 -0.11095224
0.4227677 -2.0724151 -0.11084756
0.42301258 -2.0662494 -0.11053354
0.43557414 -2.0615966 -0.11042888
0.46442658 -2.0491459 -0.11011487
0.47669283 -2.0411997 -0.10985318
0.49111715 -2.0346959 -0.10969618
0.48794061 -2.0292978 -0.10938216
0.50113469 -2.0219648 -0.10917282
0.53056592 -2.0123768 -0.10906815
0.52728713 -2.0070438 -0.10875413
0.54268074 -2.0050054 -0.10885879
0.55452573 -1.9934707 -0.10844012
0.56787968 -1.9876306 -0.10833544
0.59724617 -1.9831771 -0.10854478
0.5787586 -1.9740857 -0.10781208
0.59241378 -1.9721166 -0.10791675
0.60734314 -1.9717501 -0.10812609
0.6063624 -1.9636924 -0.10770741
0.61816895 -1.9558188 -0.10749806
0.63201445 -1.955587 -0.10770741
0.63125736 -1.9474351 -0.10728873
0.64483762 -1.9429808 -0.10728873
0.65933186 -1.9423289 -0.10749806
0.64188689 -1.9397502 -0.10707937
0.65635604 -1.9391199 -0.10728873
0.66987747 -1.9344906 -0.10728873
0.67287576 -1.9376787 -0.10749806
0.68287152 -1.925704 -0.10707938
0.69425762 -1.9152563 -0.10676536
0.70605862 -1.9066784 -0.10655601
0.71798277 -1.9000856 -0.10645135
0.72213787 -1.9070553 -0.10687003
0.73410589 -1.9024802 -0.10687003
0.73399341 -1.8982416 -0.10666069
0.74436891 -1.8877578 -0.10634667
0.75438279 -1.8751696 -0.10592799
0.76805198 -1.8717718 -0.10603265
0.77935261 -1.8649305 -0.10592799
0.7931909 -1.8569151 -0.10582332
0.80372357 -1.8502033 -0.10571864
0.81904638 -1.8500259 -0.10603265
0.803743 -1.8458389 -0.1055093
0.81904018 -1.8456595 -0.10582332
0.82831502 -1.8349435 -0.1055093
0.8428086 -1.8349276 -0.10582332
0.85549849 -1.8246348 -0.10561397
0.46889621 -2.0440297 0.10990552
0.48137385 -2.0411274 0.10990552
0.48223451 -2.0368195 0.10969618
0.49366355 -2.0258574 0.10927749
0.50585067 -2.0146129 0.10885881
0.52228105 -2.0166061 0.10917282
0.53583241 -2.0109808 0.10906815
0.51852453 -2.0093255 0.10875413
0.54705489 -2.0038168 0.1088588
0.54774785 -1.9994861 0.10864946
0.55995148 -1.9961029 0.10864946
0.57110882 -1.9825486 0.10812609
0.58732843 -1.984054 0.10844012
0.57172978 -1.978212 0.10791675
0.59942257 -1.9741726 0.1081261
0.61250305 -1.9701533 0.10812609
0.61268991 -1.9659117 0.10791675
0.6244235 -1.9601206 0.10781208
0.62457675 -1.9558787 0.10760273
0.63821596 -1.9514709 0.10760273
0.63403636 -1.9444315 0.10718405
0.64885998 -1.9437469 0.10739339
0.6633662 -1.9430654 0.10760273
0.66376758 -1.9387068 0.10739339
0.67428106 -1.9308448 0.10718405
0.67332548 -1.9227155 0.10676537
0.68724 -1.9220285 0.10697471
0.69843543 -1.9137372 0.10676537
0.69873226 -1.9093757 0.10655601
0.71038312 -1.9050716 0.10655601
0.72499168 -1.8995602 0.10655601
0.73691261 -1.8949674 0.10655601
0.73605973 -1.8888699 0.10624201
0.74938715 -1.8879204 0.10645135
0.7462759 -1.8762616 0.10582332
0.75922227 -1.8753705 0.10603265
0.76236093 -1.8784087 0.10624201
0.77665633 -1.8768669 0.10645135
0.77077162 -1.8663324 0.10582332
0.78663421 -1.8640385 0.10603265
0.79802787 -1.8570154 0.10592799
0.80937004 -1.8477399 0.10571864
0.82225132 -1.8420439 0.10571864
0.83149147 -1.8313133 0.10540463
0.84760946 -1.8327149 0.10582332
0.8475287 -1.8283504 0.10561397
0.24901727 -2.1737807 0.11466809
0.26315168 -2.1650734 0.11430174
0.27674428 -2.1573372 0.11398773
0.31857806 -2.1253061 0.11262698
0.3330985 -2.1271224 0.11283633
0.33340117 -2.116966 0.11231297
0.34747884 -2.1126771 0.1122083
0.38908967 -2.0932233 0.11158027
0.40164709 -2.0847483 0.11126626
0.41489318 -2.080116 0.11116158
0.42617032 -2.0615218 0.1103242
0.441989 -2.0581882 0.1103242
0.45519799 -2.0532613 0.11021954
0.46835983 -2.0482504 0.11011487
0.65014136 -1.9464537 0.17954083
0.66190171 -1.9393282 0.17927936
0.67312658 -1.9280761 0.17866927
0.68506157 -1.9217532 0.17849496
0.70116597 -1.9201785 0.17884357
0.71176833 -1.9077702 0.17814633
0.72223181 -1.8953071 0.17744908
0.73659015 -1.8951184 0.17788488
0.74551111 -1.8819864 0.17710046
0.76326251 -1.8834594 0.17779772
0.78679514 -1.8694278 0.17744908
0.79707837 -1.8574806 0.17683899
0.8088184 -1.8513119 0.17675185
0.28931966 -2.1483257 0.18965089
0.29081932 -2.1481233 0.18965089
0.30477881 -2.1441746 0.18947658
0.31830877 -2.1311285 0.18851787
0.33265412 -2.1279283 0.18843071
0.34653711 -2.1196551 0.18790779
0.35903132 -2.1115122 0.18738484
0.36221674 -2.1190536 0.18808208
0.37630239 -2.1125505 0.18773346
0.37376368 -2.1089542 0.18738484
0.38739347 -2.1004157 0.1868619
0.38886315 -2.0981178 0.1866876
0.4009223 -2.0917895 0.18633896
0.40237099 -2.0894823 0.18616466
0.41541395 -2.0808337 0.18564174
0.41318384 -2.077215 0.18529311
0.42807752 -2.076231 0.18546741
0.468005 -2.0532951 0.18424724
0.46846312 -2.0470593 0.1837243
0.48208094 -2.0449185 0.18381146
0.49380872 -2.0349433 0.18320136
0.53654742 -2.0179105 0.18267845
0.54764467 -2.0066667 0.18198119
0.55969203 -1.9992025 0.18163256
0.58655298 -1.9852555 0.18110964
0.5983749 -1.9744388 0.18049955
0.61312819 -1.9709507 0.1805867
0.61057091 -1.9675727 0.18023807
0.62455332 -1.9652699 0.1804124
0.24778907 -2.181586 0.19209124
0.24908599 -2.1794331 0.19191694
0.26221722 -2.1668544 0.19095823
0.27733707 -2.1619582 0.19069678
0.27532324 -2.1581984 0.19034813
0.68221974 -1.9127256 0.24934469
0.70543963 -1.896873 0.24849162
0.73359275 -1.8893585 0.24885722
0.74690962 -1.8884038 0.24934469
0.74310809 -1.874964 0.24763852
0.75387585 -1.8663793 0.24715105
0.76964569 -1.8663753 0.24788228
0.78496546 -1.8664461 0.24861349
0.7653203 -1.8595693 0.24690731
0.77719235 -1.8524864 0.24666359
0.79442739 -1.8548824 0.2477604
0.80457807 -1.8429234 0.24690732
0.81581736 -1.8358039 0.24666359
0.82827413 -1.8280379 0.24641983
0.84136963 -1.8242342 0.24666359
0.4131946 -2.075376 0.25982547
0.42498726 -2.064887 0.25885051
0.43773687 -2.0541036 0.25787556
0.45278314 -2.0508399 0.25787556
0.4679724 -2.0514996 0.25836304
0.45092449 -2.0492167 0.25763181
0.46477959 -2.0440829 0.25738806
0.48025265 -2.0435615 0.25775367
0.49291831 -2.0374806 0.25738806
0.49188551 -2.0254755 0.25592566
0.50472945 -2.024359 0.25616938
0.50408632 -2.0142891 0.25495067
0.51775348 -2.0128694 0.25519443
0.53470463 -2.0166488 0.25616938
0.53040922 -2.0075183 0.25495067
0.54606628 -2.006402 0.25531629
0.55605143 -1.9882027 0.25348827
0.56905228 -1.9845209 0.25348827
0.57023519 -1.9821159 0.25324452
0.58190137 -1.9745836 0.25275704
0.599235 -1.9797651 0.25397575
0.59326255 -1.9649802 0.25202581
0.6091187 -1.965319 0.25263518
0.62102151 -1.9553429 0.25190395
0.63516927 -1.9560117 0.25251329
0.63503176 -1.9497938 0.25178206
0.64495802 -1.9371202 0.25068527
0.65993249 -1.9352167 0.25105089
0.67421627 -1.9355423 0.2516602
0.65568697 -1.9282742 0.25007591
0.68587244 -1.9282826 0.25129461
0.69592595 -1.9141195 0.25007591
0.72391254 -1.9037114 0.25007591
0.24688154 -2.1735959 0.26860005
0.26252571 -2.1757612 0.26908755
0.26006082 -2.1680601 0.26811257
0.27444047 -2.1542802 0.26665014
0.28777641 -2.1425252 0.26543146
0.30193958 -2.1335583 0.26457837
0.31595251 -2.1255078 0.26384717
0.3315571 -2.1221251 0.26372528
0.34411246 -2.1140919 0.26299405
0.35694656 -2.1059229 0.26226285
0.36954743 -2.0936704 0.26104417
0.38398862 -2.0850146 0.26031294
0.39762694 -2.0824571 0.26031294
0.40019172 -2.0860083 0.26080042
0.41292682 -2.0835247 0.26080042
0.79310095 -1.8522284 0.31912637
0.80597782 -1.8509712 0.3197521
0.81888044 -1.8452995 0.3197521
0.83139688 -1.8353579 0.31912637
0.84421825 -1.831671 0.3194392
0.53204745 -2.0108767 0.32945102
0.5455544 -2.0052071 0.32913816
0.55954009 -2.0013494 0.32913816
0.55567235 -1.9942255 0.3278867
0.56903768 -1.9883983 0.32757381
0.58540666 -1.9877596 0.32819954
0.59686518 -1.9781599 0.32726091
0.60938829 -1.9722707 0.32694808
0.61076504 -1.9718448 0.32694808
0.62203836 -1.9621015 0.32600945
0.63555121 -1.9577662 0.32600945
0.65972769 -1.943495 0.32507086
0.66015041 -1.9391786 0.32444513
0.67068774 -1.9313778 0.3238194
0.67107373 -1.9270605 0.32319364
0.68400282 -1.9235575 0.32335007
0.69691455 -1.9199682 0.3235065
0.72358453 -1.9058517 0.32288077
0.73478115 -1.8973265 0.32225505
0.74619448 -1.8875577 0.32147288
0.75578451 -1.876287 0.32037783
0.7724275 -1.8759073 0.32131645
0.78397489 -1.8668268 0.32069072
0.80917341 -1.8538882 0.32037783
0.32866514 -2.1169345 0.33930641
0.34198618 -2.1138229 0.33914998
0.34319645 -2.1096241 0.33852422
0.35683084 -2.106359 0.33836779
0.37259439 -2.106637 0.33883709
0.3847445 -2.1004357 0.33821136
0.36904427 -2.097234 0.33727276
0.38586196 -2.0962136 0.3375856
0.39681211 -2.0841148 0.33602124
0.39788851 -2.0798874 0.33539551
0.41091567 -2.0743322 0.33492622
0.44099775 -2.0711756 0.33539551
0.42401636 -2.0656447 0.33398762
0.45323941 -2.0614524 0.33430049
0.43709162 -2.0598886 0.33351833
0.46652544 -2.0534225 0.33351833
0.4775148 -2.0366945 0.33132821
0.49214408 -2.0311768 0.33101538
0.50686228 -2.0336618 0.33195397
0.48990777 -2.0296855 0.33070248
0.5209474 -2.0260208 0.33132821
0.53230691 -2.0189805 0.33070248
0.54535496 -2.0114019 0.33007675
2.6211238 -0.76150674 0.33514073
0.24561673 -2.1828439 0.34791031
0.25929803 -2.1713142 0.34634593
0.2449846 -2.1670122 0.34540737
0.25987133 -2.1632876 0.34509447
0.27221879 -2.1518133 0.34353012
0.28581417 -2.1420784 0.34227866
0.30308443 -2.1456883 0.34321725
0.30021191 -2.1361184 0.3416529
0.31511748 -2.1339705 0.3416529
0.31610897 -2.1278331 0.34071434
0.63511676 -1.9570118 0.39993569
0.64509726 -1.9454725 0.39840919
0.65708911 -1.9362727 0.39745516
0.66878217 -1.9291489 0.39688274
0.68391263 -1.9238369 0.39688274
0.69632155 -1.9172918 0.39650109
0.70767283 -1.9110377 0.39611951
0.70559138 -1.9013399 0.39421138
0.72232759 -1.9055469 0.39611951
0.71821845 -1.8987055 0.39459303
0.73074895 -1.8918136 0.39421138
0.75840479 -1.8808974 0.39421138
0.76955307 -1.8763638 0.39421138
0.76745713 -1.8666128 0.39230329
0.77960312 -1.8637011 0.39268494
0.78350681 -1.8684517 0.39382979
0.79259497 -1.8582131 0.39268494
0.8173449 -1.8453132 0.39230329
0.81497186 -1.8356276 0.39039519
0.8429864 -1.8294191 0.39154008
0.45127809 -2.057667 0.40947613
0.46591464 -2.0523891 0.40909451
0.46325785 -2.048965 0.40833127
0.47799692 -2.0475931 0.40871289
0.49314132 -2.039959 0.40794963
0.50594705 -2.0307515 0.40680483
0.51737016 -2.023819 0.40604156
0.51815993 -2.0195634 0.40527833
0.53186798 -2.0180268 0.40565994
0.57059824 -1.9951706 0.40337026
0.58271414 -1.9875745 0.40260699
0.58077973 -1.9758656 0.40031728
0.59471977 -1.9747901 0.40088972
0.60907125 -1.972466 0.40127134
0.62203157 -1.9632692 0.40031728
0.3006551 -2.1365664 0.41939822
0.31453159 -2.1325831 0.4190166
0.32787797 -2.1216328 0.4172993
0.3440772 -2.1220496 0.41787171
0.34128773 -2.1165342 0.41672686
0.35677078 -2.114975 0.41691768
0.3697589 -2.10776 0.41596362
0.37125716 -2.1055036 0.41558203
0.38308442 -2.0924067 0.41348314
0.39713258 -2.0867882 0.41291067
0.41151029 -2.0840011 0.4129107
0.43821543 -2.0705233 0.41138422
0.43925285 -2.0682964 0.41100258
0.25971541 -2.1715901 0.42512247
0.27350506 -2.1619809 0.42359596
0.27077028 -2.152432 0.4216879
0.28755191 -2.1522353 0.42206952
0.29970792 -2.1406643 0.42016143
0.66544932 -1.9184532 0.46879801
0.67845565 -1.9180267 0.4696978
0.68984151 -1.9077456 0.46834809
0.6908415 -1.9053111 0.46789822
0.70498854 -1.9053171 0.46902293
0.71845025 -1.9013236 0.46924794
0.72964281 -1.8928803 0.46834809
0.72885752 -1.886917 0.46699843
0.7414127 -1.8841136 0.46744829
0.75367695 -1.8729409 0.46609858
0.76862758 -1.873176 0.46744829
0.7811327 -1.870108 0.46789822
0.75019068 -1.8680414 0.46474886
0.76436567 -1.8664985 0.46564871
0.78018123 -1.8641691 0.4665485
0.79002762 -1.8557823 0.46564871
0.78858727 -1.8479228 0.46384907
0.80066389 -1.8427222 0.4638491
0.81311488 -1.8361964 0.46362412
0.82952112 -1.8363305 0.46519879
0.84072304 -1.831229 0.46519879
0.82471538 -1.829947 0.4633992
0.84118682 -1.828871 0.46474886
0.50032932 -2.0141973 0.47914574
0.51262391 -2.0111034 0.47914574
0.52889931 -2.0088999 0.47959566
0.5401454 -2.0018685 0.47869584
0.5403645 -1.9957535 0.47734615
0.55158895 -1.9856021 0.47577149
0.58094472 -1.9802592 0.47644633
0.56383431 -1.9760809 0.4744218
0.57757568 -1.9751542 0.47509661
0.5934391 -1.9755335 0.47622138
0.60395062 -1.9631723 0.47419682
0.6024496 -1.9534392 0.47194731
0.61646944 -1.955191 0.47329703
0.62808716 -1.9422755 0.47127247
0.64384049 -1.9422438 0.47239724
0.65756637 -1.9438127 0.47374693
0.64092213 -1.9391044 0.47149745
0.65613192 -1.934011 0.47149745
0.66823387 -1.9319249 0.47194731
0.39620131 -2.0848658 0.48994341
0.40855399 -2.0804944 0.48949349
0.41995758 -2.062315 0.48589426
0.43405646 -2.0544145 0.48476952
0.44746485 -2.0505385 0.48454455
0.45014641 -2.0559368 0.48589426
0.46226794 -2.0462532 0.48431963
0.47384092 -2.0346014 0.48229504
0.48722416 -2.0294342 0.48184517
0.51534462 -2.0144312 0.48004553
0.52764058 -2.0112455 0.48004553
0.28559282 -2.1461315 0.49984124
0.29868841 -2.1374612 0.49826658
0.31346393 -2.1343594 0.49804163
0.32712913 -2.1303365 0.49759173
0.32750064 -2.1204209 0.49534222
0.3407568 -2.1203046 0.49579209
0.34167397 -2.1142354 0.49444243
0.35389191 -2.1102486 0.49399251
0.35411331 -2.1003308 0.491743
0.367347 -2.095089 0.49106812
0.38230014 -2.0963738 0.49196792
0.39546803 -2.090955 0.49129307
0.24182895 -2.1730723 0.50479019
0.25687268 -2.1654582 0.5034405
0.27031425 -2.1579297 0.50209075
0.28486145 -2.1521261 0.50119096
0.83941257 -1.8317465 0.53989661
0.60223407 -1.9612459 0.54973167
0.64453542 -1.9477539 0.54973167
0.65546429 -1.9420646 0.54921407
0.65468132 -1.9341723 0.54714346
0.66669571 -1.9280198 0.54662585
0.67994291 -1.9254371 0.54714346
0.7292757 -1.8948835 0.54403764
0.73198873 -1.8979793 0.54507297
0.7417801 -1.8879482 0.54352003
0.76905048 -1.877005 0.54352003
0.79128671 -1.861444 0.54196709
0.79215336 -1.8589755 0.54144943
0.80426246 -1.8558745 0.54196709
0.48554793 -2.0271285 0.55853152
0.5150888 -2.0178306 0.55801392
0.52632403 -2.0069413 0.55594331
0.53844345 -1.999723 0.55490804
0.54018843 -1.9992523 0.55490804
0.5541327 -1.9954324 0.55490804
0.56804967 -1.9915152 0.55490804
0.55032986 -1.9884678 0.55283749
0.56525517 -1.9882939 0.55387276
0.57873106 -1.9803879 0.55283749
0.59296072 -1.9802078 0.55387276
0.59212136 -1.9723923 0.55180228
0.60474008 -1.9645176 0.55076694
0.61862695 -1.9632275 0.55154347
0.39417762 -2.0901244 0.56991959
0.39492252 -2.0840855 0.56836665
0.40834358 -2.0755911 0.56681371
0.42289403 -2.0785899 0.56836665
0.43388659 -2.0625062 0.56474322
0.43452802 -2.0584226 0.56370795
0.44786385 -2.0575392 0.56422555
0.46136895 -2.0505931 0.56319028
0.4476513 -2.0496767 0.56215501
0.46152446 -2.0446169 0.56163734
0.47380185 -2.0368485 0.56034327
0.49002674 -2.0379739 0.56163734
0.50312221 -2.0337853 0.56137854
0.51523256 -2.0257683 0.5600844
0.29754713 -2.1333647 0.5771665
0.31178206 -2.1371877 0.57871938
0.31252474 -2.1292696 0.57664889
0.32494158 -2.1235013 0.57561362
0.33908284 -2.1193328 0.57509595
0.34062517 -2.1171286 0.57457829
0.35355181 -2.1150084 0.57457829
0.36760831 -2.1106501 0.57406068
0.36911684 -2.1084254 0.57354301
0.38095519 -2.1004286 0.57199007
0.38209534 -2.0962944 0.57095486
0.24200779 -2.1850863 0.58907217
0.24122882 -2.1676793 0.58441341
0.25526011 -2.1631539 0.583637
0.26948181 -2.160455 0.5833782
0.27074972 -2.1583495 0.58286053
0.28367701 -2.1547399 0.58234286
0.29818168 -2.14888 0.58130759
