# .PCD v0.7 - Point Cloud Data file format
VERSION 0.7
FIELDS x y z
SIZE 4 4 4
TYPE F F F
COUNT 1 1 1
WIDTH 803
HEIGHT 1
VIEWPOINT 0 0 0 1 0 0 0
POINTS 803
DATA ascii
-3.4454508 7.2430491 -0.1400032
-3.401144 7.2639594 -0.1400032
-3.192961 7.3643851 -0.14010793
-3.1494825 7.3874311 -0.14017773
-3.0975852 7.4050074 -0.14010793
-3.0888083 7.4021721 -0.1400032
-2.4145658 7.6487103 -0.1400032
-2.409091 7.6546283 -0.14007302
-2.3640521 7.6749353 -0.14017773
-2.309263 7.6874232 -0.14010793
-2.3048482 7.6970978 -0.14024754
-2.2613807 7.7183151 -0.14038716
-2.2568867 7.727963 -0.14052677
-2.2134788 7.7550664 -0.14077111
-2.2072582 7.7589192 -0.14080602
-2.165709 7.7934504 -0.14118996
-2.1589112 7.7953367 -0.14118996
-2.1044333 7.8102193 -0.14118996
-2.1149051 7.8218918 -0.1414343
-3.5936561 7.1482968 -0.13965416
-3.5454354 7.1767974 -0.13972397
-3.5453601 7.1924429 -0.13996831
-3.4926257 7.1959763 -0.13961925
-3.4880886 7.2026215 -0.13968907
-3.4474669 7.2310147 -0.13982868
-3.3863404 7.2488074 -0.13965416
-3.3470075 7.2802591 -0.13986358
-3.3398166 7.2813611 -0.13982868
-3.2919879 7.2943358 -0.13968907
-3.2864425 7.2990294 -0.13972397
-1.8036932 7.2993064 -0.1312421
-1.814876 7.3171387 -0.13159114
-3.2426031 7.3207965 -0.13975887
-3.2402549 7.3327694 -0.13993341
-3.195401 7.3524265 -0.13993341
-3.0105548 7.358777 -0.13878153
-3.0200105 7.3635488 -0.13892116
-3.137557 7.377296 -0.13993341
-2.9059105 7.3770885 -0.13839759
-2.9024007 7.3870649 -0.1385372
-2.8500402 7.4052811 -0.1385023
-2.8601005 7.4121199 -0.13867682
-2.806164 7.4262948 -0.13857211
-2.7989776 7.4268694 -0.1385372
-2.7583261 7.4527254 -0.13871174
-2.753289 7.4631133 -0.13885134
-2.710315 7.4830813 -0.13892116
-2.7038355 7.4896765 -0.13899097
-1.9059057 7.4880786 -0.1348722
-1.9183784 7.5096626 -0.13529105
-2.6613462 7.5112443 -0.13909568
-2.6601202 7.5286479 -0.13937493
-2.6147351 7.5466466 -0.13940983
-2.6061933 7.5432539 -0.13930511
-2.5633059 7.56427 -0.13940983
-2.555424 7.5627146 -0.13934001
-2.5110669 7.5838776 -0.13944472
-2.505702 7.5898643 -0.13951454
-2.4629829 7.616446 -0.13972397
-2.4587901 7.6262035 -0.13986358
-2.353832 7.6655259 -0.13996831
-1.3765498 6.7418551 -0.12010746
-1.4444888 6.8605127 -0.12237628
-1.453781 6.8749008 -0.12265551
-1.529803 7.0222011 -0.1254479
-1.5431952 7.0540729 -0.12604128
-1.6007544 7.1088929 -0.12719314
-1.6082834 7.1133432 -0.12729785
-1.6633599 7.1253109 -0.12771671
-1.7202396 7.1488199 -0.128345
-1.7135346 7.1483736 -0.12831008
-1.228163 6.2657952 -0.11145107
-1.2413603 6.3039613 -0.11214916
-1.366683 6.7234578 -0.11975842
-0.87427115 5.6802368 -0.10031643
-0.86931688 5.6809974 -0.10031643
-0.91464674 5.7103324 -0.10094472
-0.92598909 5.7490168 -0.10164282
-0.97528285 5.8280606 -0.10314372
-0.98169798 5.8350949 -0.10328334
-1.0324494 5.9156661 -0.10481916
-1.0403752 5.9305196 -0.1050984
-1.0937673 6.0245852 -0.10687853
-1.1015365 6.0373998 -0.10712288
-1.1595399 6.1425619 -0.10911245
-1.1689987 6.1631589 -0.1094964
-2.6625631 3.0190225 -0.070263386
-2.6612496 3.022846 -0.070298299
-2.6311002 3.0675888 -0.070542626
-2.6239843 3.0657859 -0.070437916
-2.6385722 3.1190138 -0.071310528
-2.6000826 3.1173952 -0.070856772
-2.5955372 3.1185791 -0.070821866
-2.6353047 3.1217752 -0.071310528
-2.5740747 3.1337299 -0.07078696
-2.5477285 3.1461854 -0.070664793
-2.5184362 3.1581812 -0.07050772
-2.5254872 3.1602287 -0.070612431
-2.4922278 3.1636448 -0.070298299
-2.4926195 3.1709702 -0.07040301
-2.4713068 3.1825459 -0.070333198
-2.4685271 3.1847024 -0.070333198
-2.4465973 3.1965451 -0.070263386
-2.4474492 3.2034459 -0.070368104
-2.4259875 3.2147212 -0.070298299
-2.4190106 3.212467 -0.070193581
-2.3951313 3.2203474 -0.070053965
-2.3271463 3.267359 -0.070019051
-2.3705285 2.505887 -0.060210802
-2.3825624 2.5247791 -0.060594756
-2.4239073 2.5984118 -0.062025853
-2.423455 2.6042991 -0.062095661
-2.4747512 2.6903296 -0.063805997
-2.478694 2.700285 -0.06398052
-2.5177102 2.7756732 -0.06541162
-2.5335898 2.7990637 -0.065900289
-2.5862565 2.8915555 -0.067715339
-2.5957196 2.9072356 -0.068029478
-2.6204178 3.0186994 -0.069774717
-2.6314521 3.0250063 -0.069984153
-2.3857992 3.2148244 -0.069879435
-2.366061 3.2269003 -0.069844536
-2.3662229 3.2342176 -0.069949247
-2.346384 3.246172 -0.069914341
-2.3447554 3.25228 -0.069984153
-2.3208351 3.2669404 -0.069949247
-2.3002608 3.2790167 -0.069914341
-2.2933841 3.2765098 -0.069809623
-2.2693541 3.2834802 -0.069670007
-2.2704556 3.2924397 -0.069809623
-2.2452502 3.2975905 -0.069635101
-2.2440436 3.3032482 -0.069704913
-2.224402 3.3165066 -0.069704913
-2.2242641 3.3238196 -0.069809623
-2.1989896 3.3286178 -0.069635101
-2.1988044 3.3359277 -0.069739819
-2.1727791 3.3457861 -0.069635101
-2.185513 3.3589742 -0.069949247
-2.1475997 3.3548822 -0.06953039
-2.1240511 3.3651128 -0.069460578
-2.1237228 3.3724117 -0.069565296
-1.9400442 3.3779316 -0.067994572
-2.100843 3.3843579 -0.06953039
-1.9746672 3.3833029 -0.06837853
-2.0768592 3.3944414 -0.069460578
-1.9771607 3.3957379 -0.068587959
-1.9444587 3.393842 -0.068273813
-2.0811901 3.4082003 -0.069704913
-2.0491052 3.4089341 -0.069425672
-1.8926914 3.4046898 -0.067994572
-1.8881555 3.4049213 -0.067959674
-2.0562062 3.4139972 -0.069565296
-2.0211837 3.4162724 -0.069286056
-1.8661294 3.4170418 -0.067959666
-1.8338332 3.4129319 -0.067628071
-2.0288401 3.4210341 -0.069425672
-1.8131601 3.4273543 -0.067680433
-1.8123699 3.4345567 -0.067785151
-1.7910339 3.4434769 -0.067750245
-1.790792 3.4503632 -0.067854956
-1.7693866 3.4681251 -0.067959674
-1.7815156 3.4843845 -0.068308719
-2.0909927 2.0058906 -0.050577074
-2.1007762 2.0187991 -0.050856311
-2.1289001 2.0702651 -0.051833645
-2.1410527 2.0864496 -0.052182697
-2.1723616 2.1444845 -0.053282198
-2.2018545 2.2041626 -0.054381698
-2.2381234 2.2695935 -0.055638272
-2.2469661 2.2833381 -0.055917513
-2.2839754 2.3478425 -0.057174087
-2.2894607 2.359242 -0.057383511
-2.3256698 2.4243395 -0.058640085
-2.3365326 2.4416258 -0.058989134
-2.2610519 0.39705676 -0.040070724
-2.2645736 0.40012005 -0.040140536
-2.2818303 0.41714755 -0.040489584
-2.2872922 0.42062172 -0.040594298
-2.2965431 0.43642756 -0.040803727
-2.3059056 0.44070905 -0.040978249
-2.2674661 0.44979289 -0.040349964
-2.2875547 0.45128813 -0.040699009
-2.2510433 0.46043491 -0.04010563
-1.783336 1.448761 -0.04010563
-1.7941724 1.4544485 -0.040315062
-1.8034062 1.484237 -0.040768825
-1.8166888 1.5152208 -0.041292395
-1.8261081 1.5257801 -0.041536726
-1.8482668 1.5646744 -0.042269729
-1.8745534 1.6078221 -0.043107443
-1.8774182 1.6136944 -0.043212157
-1.9010018 1.6536804 -0.043980066
-1.8932391 1.6504143 -0.043840446
-1.9179016 1.6920476 -0.044643257
-1.9236196 1.7006776 -0.044817779
-1.9450927 1.7397243 -0.045550782
-1.9551827 1.7524377 -0.045830019
-1.977874 1.7959464 -0.04663283
-2.0059731 1.8452332 -0.047575258
-2.0128617 1.8554648 -0.04778469
-2.0388374 1.9039092 -0.048692215
-2.0634167 1.9536668 -0.049599737
-0.18972304 2.2978296 -0.040245246
-0.27377933 2.4523897 -0.04307254
-0.29560938 2.4901333 -0.043770637
-0.31483516 2.5240531 -0.044398922
-2.2369289 0.45958254 -0.039861299
-2.2223423 0.47075185 -0.039651867
-2.2199748 0.47227484 -0.039616965
-2.205117 0.48422018 -0.039407533
-2.1901987 0.49599323 -0.039198104
-2.1878154 0.49746096 -0.039163202
-2.1711941 0.50725001 -0.038918864
-2.1628747 0.50769544 -0.038779248
-2.1430283 0.51766098 -0.038482554
-2.1251776 0.52750301 -0.038220771
-2.1245317 0.53009886 -0.038220771
-2.1020694 0.53737396 -0.037871722
-2.1072218 0.54143399 -0.037976436
-2.090435 0.55036575 -0.037732106
-2.0898576 0.55255443 -0.037732106
-2.0589342 0.55978549 -0.037243433
-2.0788209 0.5628553 -0.037592482
-2.0420904 0.56824178 -0.036999103
-2.0414941 0.57037979 -0.036999103
-2.0303826 0.58028585 -0.036859483
-2.029774 0.58241159 -0.036859483
-2.0206292 0.59240502 -0.036754768
-2.0160673 0.59374273 -0.036684956
-2.0023019 0.60491198 -0.036510434
-1.9953798 0.60016108 -0.036370814
-1.9949628 0.61525542 -0.036440626
-1.9789286 0.61295891 -0.036161385
-1.9444818 0.61589092 -0.035602912
-1.9311159 0.6248498 -0.035428386
-1.9265472 0.62597305 -0.035358574
-1.9187242 0.63697302 -0.035288766
-1.9048762 0.64680481 -0.035114244
-1.8988284 0.65827066 -0.035079334
-1.8848026 0.65598923 -0.034835003
-1.8715696 0.6634925 -0.034660477
-1.8671056 0.66411209 -0.034590669
-1.8480914 0.66972917 -0.034311432
-1.8530271 0.67371434 -0.034416147
-1.8373883 0.68149376 -0.034206714
-1.827911 0.6925329 -0.034119457
-1.8225908 0.70364487 -0.034102004
-1.8106645 0.70122004 -0.033892576
-1.7819179 0.70335323 -0.033438813
-1.7550758 0.70589161 -0.033019952
-1.7655869 0.71190965 -0.033229381
-1.753805 0.71964544 -0.033089764
-1.7605737 0.72421843 -0.033229381
-1.7359524 0.72616464 -0.03284543
-1.6318505 0.72518182 -0.031169999
-1.6003067 0.7222296 -0.030646425
-1.5995497 0.72390491 -0.030646425
-1.7462548 0.73262376 -0.033054858
-1.7190354 0.73535889 -0.032636002
-1.651019 0.73128617 -0.031519048
-1.5948403 0.73422152 -0.030646427
-1.7363588 0.74061948 -0.032950144
-1.7078981 0.7435019 -0.032513835
-1.4730202 0.88753057 -0.030018138
-1.4757738 0.90417886 -0.030210115
-1.4827225 0.92147779 -0.0304719
-1.4985671 0.93386459 -0.030820949
-1.5078831 0.95287693 -0.031135093
-1.5242436 0.97929847 -0.031623758
-1.5185344 0.97338498 -0.031484142
-1.5351652 0.9992348 -0.031972811
-1.5292674 0.99729735 -0.031868093
-1.5431665 1.0198509 -0.032286953
-1.5422759 1.0211971 -0.032286953
-1.5594394 1.045925 -0.032775622
-1.5649816 1.0520198 -0.032915238
-1.5686284 1.0680411 -0.033124667
-1.5807232 1.0787005 -0.033403907
-1.5858096 1.0960201 -0.033648241
-1.5945241 1.1045121 -0.03385767
-1.598225 1.1236683 -0.034102004
-1.6124977 1.1311806 -0.034381241
-1.6188192 1.153414 -0.034695383
-1.6285517 1.1775771 -0.035079338
-1.6467201 1.2069829 -0.035637815
-1.6519018 1.213442 -0.035777435
-1.6639265 1.2375439 -0.036196291
-1.6738528 1.247651 -0.036440626
-1.6746715 1.2665437 -0.036650054
-1.6889886 1.2741313 -0.036929294
-1.7006907 1.3049858 -0.037417959
-1.699108 1.3004758 -0.037348151
-1.721576 1.3368357 -0.038046245
-1.7246753 1.3426231 -0.038150962
-1.7373346 1.3686209 -0.038604725
-1.7497851 1.3818965 -0.038918864
-1.7542942 1.4019384 -0.039198104
-1.7684331 1.4162757 -0.039547153
0.13163683 1.7146927 -0.030018138
0.12132223 1.7284834 -0.030245021
0.10918634 1.7403127 -0.030436996
0.11070408 1.7402169 -0.030436996
0.098480612 1.7669884 -0.030890759
0.10010409 1.7628913 -0.030820949
0.088987485 1.7875139 -0.031239808
0.065451652 1.8285503 -0.031937905
0.063675761 1.8326149 -0.032007713
0.053260162 1.8489516 -0.032286953
0.051759277 1.852995 -0.032356761
0.040700611 1.8652718 -0.03256619
0.028003888 1.8875049 -0.032950144
0.039407074 1.8813009 -0.03284543
0.026607193 1.9055241 -0.033264287
-0.012585297 1.9756589 -0.034485955
-0.026632637 1.9945183 -0.03481755
-0.040262684 2.0232913 -0.035323672
-0.057038978 2.0548954 -0.035882145
-0.069972955 2.0765052 -0.0362661
-0.101721 2.1332512 -0.037278343
-0.10444141 2.1431298 -0.037452865
-0.15503463 2.2282732 -0.03898868
-1.150493 -0.17563929 -0.0203146
-1.1627092 -0.16113235 -0.020489125
-1.1540689 -0.16507751 -0.020349506
-1.1477044 -0.16722769 -0.020244792
-1.1557952 -0.15257391 -0.020349504
-1.2174668 -0.1428041 -0.02139665
-1.2073874 -0.14290367 -0.021222128
-1.2144587 -0.1338632 -0.02132684
-1.2023933 -0.13380781 -0.021117412
-1.2093964 -0.12476552 -0.021222128
-1.1973315 -0.12478811 -0.021012699
-1.2111719 -0.11704885 -0.021239579
-1.2151607 -0.10638327 -0.021291936
-1.2048336 -0.093770303 -0.021094143
-1.2030383 -0.081803828 -0.021047603
-1.1949434 -0.082929917 -0.020907983
-1.2135015 -0.074965164 -0.021222128
-1.2129968 -0.066436067 -0.021204675
-1.2134259 -0.058074486 -0.021204673
-1.2211351 -0.040722646 -0.02132684
-1.2069041 -0.046790481 -0.021082506
-1.2153728 -0.032779746 -0.021222126
-1.223567 -0.024560478 -0.021361746
-1.2336949 -0.017011432 -0.02153627
-1.2297183 -0.015239397 -0.02146646
-1.2267894 -0.0076018153 -0.021414103
-1.2477781 0.0089289332 -0.021780603
-1.2318113 0.0017199381 -0.021501366
-1.227813 0.00021409549 -0.021431556
-1.2457684 0.010219413 -0.021745699
-1.2665102 0.027415436 -0.022112198
-1.2492975 0.035768948 -0.021815507
-1.2689861 0.0456446 -0.022164557
-1.2530376 0.043975852 -0.021885319
-1.2426645 0.053386584 -0.021710794
-1.2347188 0.051965553 -0.021571174
-1.5418421 0.077027127 -0.026946515
-1.5079677 0.073751926 -0.026353134
-1.5612314 0.088926502 -0.027295565
-1.5533373 0.086845122 -0.027155945
-1.5313623 0.7189725 -0.029529471
-1.5484134 0.72500014 -0.029843615
-1.5021601 0.7290858 -0.029145518
-1.5339057 0.73229253 -0.029669091
-1.5015234 0.73039633 -0.029145518
-1.504205 0.74309748 -0.029285138
-1.4981796 0.74174839 -0.029180422
-1.4853201 0.74736226 -0.029023353
-1.4831337 0.7583046 -0.02907571
-1.4645435 0.75073516 -0.02872666
-1.4521743 0.75724304 -0.028587043
-1.4655179 0.7619254 -0.028831376
-1.4495567 0.76652896 -0.028621947
-1.4521521 0.77017349 -0.028691756
-1.4406475 0.77473581 -0.028552137
-1.43618 0.77459675 -0.028482327
-1.4369583 0.78573394 -0.028587043
-1.4412574 0.79037344 -0.028691756
-1.4271104 0.79529798 -0.028517231
-1.440177 0.8006044 -0.028761568
-1.4219446 0.8044976 -0.028517231
-1.4219222 0.81665087 -0.028621947
-1.4245323 0.82013482 -0.028691756
-1.4636477 0.8563152 -0.029599281
-1.4576358 0.85074949 -0.029459663
-1.4610717 0.86855584 -0.029669091
-1.4585406 0.86498535 -0.029599281
-1.4652432 0.88493741 -0.029878521
0.48660204 1.037369 -0.020000458
0.48438805 1.0428103 -0.020070268
0.48715854 1.0591593 -0.020349504
0.47232327 1.0658576 -0.020349504
0.48135909 1.0651002 -0.020401865
0.46480045 1.0749646 -0.020442585
0.47631299 1.0728383 -0.020489125
0.46304798 1.0829811 -0.020558937
0.45934257 1.095408 -0.020733459
0.45472002 1.1070693 -0.02089053
0.46166584 1.1031071 -0.020873079
0.4391959 1.1143941 -0.020907983
0.4480027 1.1130387 -0.020942887
0.43651426 1.1283215 -0.021117412
0.44418493 1.1253239 -0.021117412
0.43441302 1.1355516 -0.021222126
0.42547911 1.1496025 -0.02139665
0.42926449 1.1567302 -0.02153627
0.43490824 1.1503452 -0.02146646
0.41226092 1.1628988 -0.02153627
0.42281985 1.1654849 -0.021640982
0.40802181 1.1749821 -0.021710794
0.41642004 1.1720321 -0.021710794
0.40215099 1.1833422 -0.021815507
0.39913115 1.2033408 -0.022129651
0.40774608 1.2025608 -0.022164557
0.38420838 1.2144816 -0.022234367
0.39472693 1.2184629 -0.022356533
0.3774313 1.2207917 -0.022304177
0.37989983 1.2325865 -0.022513606
0.37640435 1.248286 -0.022757938
0.36940005 1.2607988 -0.022932461
0.3751981 1.2622089 -0.022984821
0.35553014 1.2772387 -0.023141891
0.36333889 1.2708801 -0.023072081
0.34880817 1.28738 -0.023281511
0.34383383 1.3031995 -0.023525843
0.34648487 1.3169767 -0.023770178
0.3377775 1.3213007 -0.023805084
0.34068695 1.3288127 -0.023944702
0.32327288 1.3372711 -0.024014512
0.33141989 1.3332148 -0.023979608
0.32327572 1.3413848 -0.024084322
0.31710505 1.3551819 -0.024293749
0.30967751 1.3630513 -0.024398465
0.31157723 1.3769736 -0.024642797
0.30427247 1.3867962 -0.024782417
0.29624301 1.3967116 -0.024922037
0.28748876 1.4036429 -0.025009297
0.27942485 1.4144442 -0.02516637
0.27278513 1.4299927 -0.025410704
0.26604477 1.4495636 -0.025724847
0.27340281 1.440053 -0.025585229
0.2661109 1.4556503 -0.025829561
0.25818354 1.4672303 -0.026004087
0.2480862 1.4730273 -0.026073895
0.25037301 1.4787253 -0.026178611
0.24131179 1.4923861 -0.026388038
0.23453146 1.5167407 -0.026789445
0.21626852 1.5446963 -0.027225753
0.21845262 1.5504476 -0.027330469
0.20826821 1.5619359 -0.027504994
0.19954878 1.5751687 -0.027714422
0.19892223 1.5812945 -0.027819136
0.19068435 1.5943933 -0.028028565
0.19023593 1.6025022 -0.028168185
0.1810798 1.6156362 -0.028377613
0.17134045 1.6247418 -0.028517231
0.17096254 1.6348349 -0.028691756
0.16142231 1.6448463 -0.028848829
0.15165676 1.6568202 -0.029040804
0.13297905 1.7125834 -0.029983234
0.62652689 0.77149147 -0.017347692
0.62737441 0.78365195 -0.017522216
0.61162394 0.79852617 -0.017557122
0.62470901 0.79215497 -0.017609477
0.60900676 0.80554336 -0.01762693
0.613343 0.80600989 -0.017679289
0.62284505 0.80123365 -0.017714191
0.60905606 0.81800604 -0.017801454
0.58802259 0.82590103 -0.01769674
0.59706259 0.82556713 -0.017784003
0.60451496 0.8238492 -0.017836358
0.58777523 0.83709645 -0.017853811
0.59454918 0.83352745 -0.017871264
0.58513004 0.84503555 -0.017941073
0.58591509 0.85581875 -0.018103963
0.5634914 0.86439419 -0.018010885
0.57545811 0.86368477 -0.018115599
0.56725132 0.87149107 -0.018150503
0.56747341 0.88444245 -0.01834248
0.55823898 0.89737272 -0.018447194
0.56342173 0.89176333 -0.018412288
0.54553366 0.90398532 -0.018429741
0.55196035 0.90124822 -0.018447194
0.54659873 0.91383749 -0.018586813
0.53364831 0.92954487 -0.01870898
0.54861474 0.92544329 -0.01877879
0.5334816 0.93807715 -0.018836966
0.54708338 0.9367851 -0.018935863
0.52629966 0.94518584 -0.018883504
0.52935988 0.9526366 -0.019023122
0.52641243 0.96111411 -0.019127838
0.51685613 0.97534859 -0.019267458
0.52443147 0.97356832 -0.019302363
0.53053826 0.97025394 -0.019302363
0.51513696 0.98453426 -0.019395441
0.52754015 0.98097897 -0.019441981
0.50739962 0.99154615 -0.019441981
0.5058549 1.0057836 -0.019651409
0.49579167 1.0196838 -0.019791029
0.50254476 1.0163724 -0.019791029
0.48794651 1.0234611 -0.019791029
0.49273211 1.0233793 -0.019825934
-0.15227506 -2.2805738 0.039896201
-0.14962725 -2.2707291 0.039721675
-0.13603055 -2.2695808 0.039686773
-0.13334239 -2.2577214 0.039477345
-0.11830118 -2.2535532 0.03939008
-0.10144663 -2.2513726 0.039337724
-0.085650824 -2.2500277 0.039302818
-0.10331941 -2.2492855 0.039302818
-0.087614186 -2.2499521 0.039302818
-0.071265839 -2.2305219 0.03895377
-0.069708981 -2.230571 0.03895377
-0.054376513 -2.2169955 0.038709439
-0.038791813 -2.2113228 0.038604725
-0.022387885 -2.2115498 0.038604725
-0.024230015 -2.203531 0.038465101
-0.0082773743 -2.2056484 0.038500011
0.0061203367 -2.1916578 0.038255677
0.0080034835 -2.1836526 0.038116053
0.020942388 -2.1815672 0.038081151
0.022762019 -2.1735497 0.03794153
0.053205255 -2.1770186 0.038011342
0.2503449 -2.1753085 0.038220771
0.036884502 -2.167356 0.03783682
0.050928384 -2.1610708 0.037732106
0.067048684 -2.1636314 0.037784465
0.23400053 -2.1610367 0.03794153
0.26424515 -2.1645985 0.038063698
0.27997726 -2.1616118 0.038046245
0.080946878 -2.1561525 0.03766229
0.15614603 -2.152014 0.03766229
0.20286775 -2.1501217 0.0376972
0.2771908 -2.1518903 0.037871722
0.29290751 -2.1578798 0.038011342
0.082444511 -2.1460898 0.037487768
0.29333267 -2.1497493 0.037871722
0.30598563 -2.1419251 0.037767008
0.096173808 -2.1385124 0.037365604
0.12738818 -2.137882 0.037383057
0.14020285 -2.1390839 0.037417959
0.15714538 -2.1399109 0.037452865
0.16920787 -2.1309669 0.037313245
0.18628696 -2.1335568 0.037383057
0.19968873 -2.1363609 0.037452865
0.30728549 -2.1376984 0.0376972
0.10949986 -2.1248565 0.037138719
0.11145864 -2.1267569 0.037173625
0.12421438 -2.1220441 0.037103817
0.141407 -2.1289842 0.037243433
0.17090732 -2.1288254 0.037278343
0.18339166 -2.1217649 0.037173625
0.31944829 -2.1298487 0.037592482
0.32071003 -2.1256146 0.037522674
0.33445913 -2.1224823 0.037505221
0.35031238 -2.1229639 0.03755758
0.36327422 -2.1207843 0.03755758
0.34716436 -2.1153755 0.037417959
0.36342829 -2.1106131 0.037383057
0.37559542 -2.1064506 0.037348151
0.37602267 -2.0982487 0.037208531
0.38810325 -2.0919802 0.037138719
0.38956237 -2.0896749 0.037103817
0.40228194 -2.0821719 0.037016556
0.41830686 -2.0820713 0.037068911
0.41531336 -2.0765531 0.036964197
0.43072605 -2.0744321 0.03698165
0.4421683 -2.0607762 0.036789671
0.44318616 -2.0585122 0.036754768
0.45509285 -2.0477192 0.036615148
0.47053987 -2.046277 0.036650054
0.48438412 -2.045099 0.03668496
0.49823174 -2.043828 0.036719862
0.46732414 -2.0388083 0.036510434
0.49668795 -2.0297959 0.036475532
0.50947338 -2.0245624 0.036440626
0.52208936 -2.0151491 0.036335912
0.53485954 -2.0066242 0.036248647
0.54771721 -2.0021164 0.036231197
0.55105203 -2.0074227 0.036335908
0.56222236 -2.0001688 0.0362661
0.56288165 -1.9958283 0.036196291
0.5759322 -1.9921012 0.036196291
0.58567119 -1.9746636 0.035951957
0.61804378 -1.9794414 0.036196291
0.59827995 -1.9667001 0.035882145
0.61130983 -1.9626893 0.035882145
0.6287235 -1.9676793 0.036056671
0.63955456 -1.957876 0.035951961
0.64126253 -1.9573171 0.035951961
0.65120053 -1.9445455 0.035794884
0.66559368 -1.9407232 0.035812337
0.66325295 -1.9394115 0.035777435
0.67611563 -1.9328462 0.035742529
0.6804499 -1.9398034 0.035882145
0.69093984 -1.9318446 0.035812337
0.69127542 -1.9274764 0.035742529
0.70303673 -1.9232178 0.035742529
0.70196217 -1.9150933 0.035602912
0.71498132 -1.9102709 0.035602912
0.71294785 -1.9088962 0.035568006
0.72483146 -1.9001358 0.035498194
0.74231017 -1.9019648 0.035637815
0.72472972 -1.8958936 0.035428386
0.73807901 -1.8950294 0.035498194
0.75490791 -1.8969998 0.035637815
0.76420617 -1.8824863 0.035463288
0.77487189 -1.8716301 0.035358574
0.78775644 -1.8662436 0.035358574
0.80474329 -1.8676951 0.035498194
0.79837471 -1.8573735 0.035288766
0.81373501 -1.8550636 0.035358578
0.82503372 -1.8456862 0.035288766
0.83592236 -1.836387 0.035218958
0.84824312 -1.8307288 0.035218958
0.85120469 -1.8337637 0.035288766
0.84285438 -1.7846808 0.034451053
0.8465699 -1.7629777 0.034136906
0.8463738 -1.7586344 0.034067098
0.88361561 -1.7435837 0.034119457
0.89331341 -1.7307627 0.033997286
0.89088696 -1.729764 0.033962384
0.8927334 -1.7040178 0.033578429
0.89236087 -1.6996969 0.033508621
0.9008463 -1.6906846 0.033438813
0.90043765 -1.6863697 0.033369001
0.91116214 -1.6805991 0.033369001
0.92263716 -1.6720437 0.033334095
0.9411357 -1.6777701 0.033578429
0.9192484 -1.6693449 0.033264287
0.93381053 -1.6681212 0.033369001
0.94912738 -1.6663616 0.033473715
0.96101433 -1.6618451 0.033508621
1.0393538 -1.6613771 0.034206714
0.96016973 -1.6577129 0.033438813
0.97056639 -1.6516474 0.033438813
1.0221617 -1.6579304 0.03399729
0.96969038 -1.6475227 0.033369001
0.98219508 -1.6424291 0.033403907
0.99779063 -1.6423681 0.033543523
0.97899801 -1.6396805 0.033334095
0.99042106 -1.6328059 0.033334095
1.0272826 -1.6382637 0.033752955
-0.28723556 -2.3461223 0.041257493
-0.27021194 -2.3461311 0.041222587
-0.27052087 -2.3380432 0.041082963
-0.25397569 -2.337887 0.041048057
-0.25065017 -2.3261786 0.040838633
-0.23623471 -2.3216567 0.040733919
-0.23320501 -2.3119142 0.040559392
-0.21731807 -2.3054276 0.040419776
-0.20135117 -2.29684 0.040245246
-0.19992125 -2.2989724 0.040280156
-0.18442902 -2.2972577 0.040227793
-0.16822287 -2.2934885 0.040140532
2.9514258 -1.3208548 0.056441084
2.9468699 -1.3163472 0.056336369
2.9257879 -1.2849401 0.055777889
2.9193585 -1.2796861 0.055638272
2.9053035 -1.2518225 0.055219412
2.9025028 -1.2482139 0.055149604
2.8918684 -1.222168 0.054800555
2.9019337 -1.2240344 0.054975081
2.8855517 -1.1958247 0.054521319
2.8732431 -1.1889614 0.054276984
2.860482 -1.1621029 0.05389303
2.857384 -1.1591016 0.053823221
2.8386025 -1.130765 0.053334557
2.8263834 -1.1236118 0.053090218
2.8132787 -1.0968523 0.052706264
3.3921022 -2.1262119 0.069879435
3.3837845 -2.1168876 0.069670007
3.3558114 -2.0709734 0.068832293
3.354212 -2.0659466 0.068762481
3.3650606 -2.0443804 0.068727575
3.3733256 -2.0461788 0.068867192
3.3773808 -2.0181203 0.06867522
3.3843122 -1.9927164 0.068553053
3.3805306 -1.987313 0.068448335
3.3964109 -1.9680384 0.068518147
3.4012463 -1.9676698 0.068587959
3.4378624 -1.9601268 0.069076627
3.4427054 -1.9597046 0.069146432
3.4776232 -1.9507531 0.069600195
3.4720056 -1.9444166 0.069460578
3.4715638 -1.916406 0.069216244
3.4837439 -1.9191651 0.069425672
3.5147331 -1.9083445 0.069809623
3.5005734 -1.8967026 0.069495484
3.5262063 -1.8828187 0.069774717
3.531378 -1.8816216 0.069844536
2.4598944 -3.812623 0.079199016
2.4643064 -3.8121545 0.07923393
2.4951193 -3.8064122 0.079443358
2.5221925 -3.7933314 0.079513162
2.5232844 -3.7878001 0.07944335
2.54914 -3.7728612 0.079478256
2.574852 -3.7541485 0.079460807
2.6059768 -3.7411437 0.079582974
2.6010807 -3.7396784 0.079513162
2.6345186 -3.728447 0.079687685
2.6635232 -3.7176268 0.079827309
2.6614547 -3.7092679 0.079687685
2.6883497 -3.6947684 0.079757497
2.7145274 -3.6805501 0.079827309
2.7129848 -3.6717465 0.079687685
2.7445498 -3.6607168 0.079862215
2.7377596 -3.6583073 0.079757497
2.7704885 -3.6486609 0.079966925
2.9692335 -3.4888372 0.079966925
2.989995 -3.4154439 0.07923393
2.9963329 -3.4178662 0.07933864
3.0177491 -3.3989723 0.07933864
3.0201209 -3.3968649 0.07933864
3.0476427 -3.3829684 0.079478264
3.4767034 -2.2131982 0.07193882
3.4279981 -2.1779926 0.070891678
3.5524714 -1.8631123 0.070019051
3.5788054 -1.8471593 0.070298299
3.5804162 -1.8440355 0.070298299
3.6163957 -1.8307357 0.070752062
3.6005299 -1.8266531 0.070472814
3.6370921 -1.8118016 0.070926577
3.6605849 -1.7913219 0.071136013
3.6875741 -1.7723322 0.071415246
3.6776364 -1.7699268 0.071240723
3.7079821 -1.752755 0.071589775
3.7107072 -1.7516668 0.071624674
2.7802973 -3.6562765 0.080176361
2.8032637 -3.6361732 0.080141455
2.8282647 -3.6167607 0.080141455
2.8546889 -3.5984941 0.080176361
2.8835025 -3.5831509 0.080281071
2.9213881 -3.5756006 0.08059521
2.9106839 -3.568851 0.080385789
2.9482751 -3.5638516 0.080734834
2.9424512 -3.5504994 0.080490492
2.9787469 -3.5436475 0.080804639
2.9640851 -3.5324588 0.080490492
3.0927653 -3.3852313 0.080036737
4.2122712 -2.9319677 0.089583203
4.1681457 -2.8604045 0.088239364
4.1651926 -2.8541026 0.088134654
4.1366572 -2.7965176 0.087157324
4.1203766 -2.7813222 0.086773366
4.1023407 -2.7328188 0.086040363
4.0880723 -2.7181659 0.085691318
4.0611296 -2.6646206 0.084783792
4.0601077 -2.6588845 0.084713981
4.0349665 -2.605845 0.083841361
4.25353 -3.0072107 0.090927035
4.2425594 -2.9950147 0.090647802
4.9413939 -3.8122592 0.10893792
4.9320445 -3.7981856 0.10865869
4.6229 -3.4646668 0.10084001
4.6301212 -3.4650331 0.10094472
5.2251592 -4.3906488 0.11913013
5.2083092 -4.3702898 0.11867636
5.147891 -4.2647629 0.11668679
5.1416221 -4.25352 0.11647736
5.1758413 -4.221313 0.11658207
5.1411843 -4.2005239 0.11588398
5.2030878 -4.1908712 0.11661698
5.1989512 -4.1800642 0.11644246
5.22644 -4.1424251 0.11640756
5.1807852 -4.0549588 0.11483683
5.1669879 -4.0368934 0.11445288
5.4496198 -4.0251517 0.11825751
5.455647 -4.0237198 0.11832731
5.4951506 -3.9968581 0.11860656
4.8914886 -5.2107282 0.1247498
4.8960342 -5.2064576 0.1247498
4.9470296 -5.1939859 0.12520356
4.9887643 -5.1678214 0.12537809
4.9812522 -5.1528349 0.12509885
5.0219226 -5.1300097 0.12530828
5.0227027 -5.1236463 0.12523846
5.0590229 -5.0962439 0.12534317
5.0597606 -5.0898747 0.12527338
5.0964317 -5.0645099 0.125413
5.1084828 -5.0694017 0.12562242
5.1445184 -5.0414033 0.12572713
5.2282472 -5.0470953 0.12684409
5.1437492 -5.0336146 0.12562242
5.2074695 -5.0340662 0.12642524
5.2685394 -5.0224252 0.12705351
5.2671261 -5.0123115 0.12691391
5.3122158 -4.9937391 0.12726295
5.3224044 -4.9945755 0.12740256
5.368885 -4.9681621 0.12768181
5.3469491 -4.956532 0.12726295
5.39323 -4.9298763 0.1275422
5.4004841 -4.9278636 0.12761199
5.4364271 -4.9001374 0.12775162
5.440701 -4.8953915 0.12775162
5.4628057 -4.852664 0.1275422
5.4276142 -4.7565393 0.12597147
5.4219046 -4.7448473 0.12576205
5.3577995 -4.6296258 0.12359794
5.3519459 -4.6180463 0.12338851
5.2910485 -4.5078144 0.12132913
5.2881021 -4.4989362 0.12118951
