# .PCD v0.7 - Point Cloud Data file format
VERSION 0.7
FIELDS x y z
SIZE 4 4 4
TYPE F F F
COUNT 1 1 1
WIDTH 1242
HEIGHT 1
VIEWPOINT 0 0 0 1 0 0 0
POINTS 1242
DATA ascii
-0.71765184 -2.5860169 -0.23479758
-0.71372062 -2.5788364 -0.23410031
-0.69171011 -2.5662599 -0.23253152
-0.66811657 -2.553973 -0.23096271
-0.6693334 -2.5495348 -0.2306141
-0.64767575 -2.5427876 -0.22956821
-0.6275 -2.5365548 -0.2286095
-0.60643309 -2.5201619 -0.22677925
-0.60191119 -2.5110023 -0.22590767
-0.58230162 -2.5013044 -0.2246875
-0.56023365 -2.4900045 -0.22329301
-0.54155409 -2.490056 -0.22294438
-0.5628407 -2.4894166 -0.22329301
-0.54331863 -2.4835536 -0.22242144
-0.52217734 -2.4779043 -0.2215499
-0.50337625 -2.4675601 -0.22032972
-0.49963644 -2.4601884 -0.21963248
-0.480753 -2.443645 -0.21788934
-0.4786202 -2.4440639 -0.21788934
-0.46111891 -2.4474261 -0.21788934
-0.44287723 -2.4345932 -0.21649486
-0.42577273 -2.4295526 -0.21579762
-0.4209148 -2.4142208 -0.21440312
-0.40549904 -2.4128175 -0.2140545
-0.40184155 -2.4013095 -0.21300863
-0.38547966 -2.3959186 -0.21231139
-0.38254657 -2.3883181 -0.21161415
-0.36599934 -2.3848624 -0.21109119
-0.34801242 -2.3855402 -0.21091689
-0.34777954 -2.3694654 -0.2095224
-0.33067796 -2.3678892 -0.20917378
-0.32847652 -2.3641727 -0.20882516
-0.31174514 -2.358398 -0.2081279
-0.29247624 -2.3448038 -0.20673342
-0.2755177 -2.3348198 -0.20568755
-0.25798744 -2.3368218 -0.20568755
-0.25914502 -2.328675 -0.2049903
-0.24145362 -2.3265696 -0.20464167
-0.22546911 -2.3161626 -0.20359582
-0.2226824 -2.3084257 -0.20289856
-0.20623422 -2.2949505 -0.20159122
-0.18919423 -2.2914202 -0.20115545
-0.19029781 -2.285331 -0.20063251
-0.15609294 -2.2779367 -0.19976096
-0.14143065 -2.2669165 -0.19871511
-0.1390852 -2.2610734 -0.19819216
-0.12424085 -2.2539556 -0.19749492
-0.10811744 -2.2468076 -0.19679765
-0.076125726 -2.2301769 -0.19522884
-0.09266609 -2.2295513 -0.19522884
-0.061088208 -2.214695 -0.19383438
-0.059262007 -2.2187307 -0.19418299
-0.045625497 -2.2150674 -0.19383438
-0.043535154 -2.2071383 -0.19313712
-0.028931063 -2.1954222 -0.19209124
-0.013601944 -2.1955709 -0.19209126
0.0013351791 -2.1846547 -0.19113255
0.015569036 -2.1756334 -0.19034813
-1.6000721 -3.0737095 -0.18160579
-1.5970042 -3.0730538 -0.18150112
0.017403271 -2.16765 -0.18965089
0.030266242 -2.1675086 -0.18965089
0.0320394 -2.1595128 -0.18895365
0.04608918 -2.1552725 -0.18860503
0.061133571 -2.1548984 -0.18860503
0.076830268 -2.1464212 -0.18790779
0.089857034 -2.1439211 -0.18773346
0.091302224 -2.1338892 -0.1868619
0.10487343 -2.1252859 -0.18616466
0.11878111 -2.1245542 -0.18616466
0.12066584 -2.1184611 -0.18564174
0.13323483 -2.1177077 -0.18564174
-1.560066 -3.0538912 -0.1797217
-1.5603777 -3.0492454 -0.17951234
-1.5221058 -3.0283456 -0.17762825
-1.4850072 -3.0066645 -0.17574416
-1.4504601 -2.9857793 -0.17396474
-1.4443703 -2.9798548 -0.17354605
-1.4139222 -2.965683 -0.1721853
-1.3828363 -2.9560678 -0.17103392
-1.3798143 -2.9442503 -0.17040588
-1.3517118 -2.9374824 -0.16946384
-1.3463262 -2.9311655 -0.16904517
-1.3163717 -2.9140842 -0.16757976
-1.3118739 -2.9095404 -0.16726573
-1.2838532 -2.8958154 -0.16600966
-1.2769819 -2.8857522 -0.16538164
-1.2482618 -2.8721769 -0.16412558
-1.2224786 -2.8702247 -0.16349754
-1.2197789 -2.8583488 -0.16286951
-1.1933519 -2.8500047 -0.16192746
-1.1875113 -2.8416231 -0.1614041
-1.1592796 -2.8252115 -0.16004337
0.88686365 -1.7036494 -0.16803627
0.8974151 -1.6913514 -0.16751333
0.9075197 -1.6836882 -0.16733903
0.91800094 -1.6757249 -0.16716471
0.92773986 -1.6657931 -0.16681609
0.94596446 -1.6692665 -0.16786195
0.95686948 -1.6630392 -0.16786195
0.93666106 -1.6562171 -0.16646746
0.96328348 -1.6478032 -0.1669904
0.97533727 -1.6406974 -0.1669904
0.97317469 -1.6396644 -0.16681609
0.98774099 -1.6367517 -0.16725187
-1.1540141 -2.8165774 -0.15952002
-1.1340576 -2.8182142 -0.15920599
-1.1253909 -2.8023248 -0.15826395
-1.1011676 -2.7926183 -0.1573219
-1.0992178 -2.7933862 -0.1573219
-1.0751581 -2.7856145 -0.15648453
-1.0512478 -2.7776482 -0.15564716
-1.0460023 -2.77109 -0.15522847
-1.0160862 -2.7438941 -0.15334436
-1.0114014 -2.7371092 -0.15292569
-0.98710811 -2.7268543 -0.15198363
-0.96213335 -2.7124665 -0.15083225
-0.95843363 -2.7095389 -0.15062289
-0.93688262 -2.7086141 -0.15020421
-0.93793714 -2.7040217 -0.14999487
-0.91647124 -2.7029376 -0.14957617
-0.91202402 -2.6960089 -0.14915749
-0.88878983 -2.6858811 -0.14826778
-0.86234015 -2.6682644 -0.14695938
-0.83527851 -2.6475539 -0.14549398
-0.81396258 -2.6458273 -0.14507528
-0.81168944 -2.6318984 -0.14434259
-0.78777874 -2.6224751 -0.14350522
-0.76248938 -2.6049757 -0.14224914
-0.7404862 -2.5926266 -0.14130709
-0.73584378 -2.5814896 -0.14067906
-0.71521717 -2.5789905 -0.14026037
2.6084447 -0.74328113 -0.14214447
-0.71487737 -2.5707936 -0.13984169
-0.69340777 -2.5663242 -0.13931832
-0.67395282 -2.5653071 -0.13900432
-0.65242279 -2.5502567 -0.1379576
-0.64921021 -2.5469544 -0.13774826
-0.62816226 -2.5316534 -0.13670154
-0.60532999 -2.5146174 -0.13555014
-0.58574152 -2.5131006 -0.13523613
-0.56772554 -2.5028977 -0.13450342
-0.58385789 -2.4971325 -0.13439874
-0.56290549 -2.4937496 -0.13398007
-0.54294014 -2.4818184 -0.13314268
-0.5240016 -2.4715967 -0.13240999
-0.51976413 -2.4643271 -0.1319913
-0.5018425 -2.4578476 -0.13146794
-0.48265579 -2.4555809 -0.13115391
-0.48282397 -2.4474056 -0.13073523
-0.46466085 -2.4427869 -0.13031654
-0.46136034 -2.4393473 -0.13010719
-0.44543859 -2.4341836 -0.12968852
-0.4414596 -2.4267886 -0.12926982
-0.42357755 -2.4157805 -0.12853712
-0.40426067 -2.4028869 -0.12769975
-0.38631958 -2.4038138 -0.12759508
-0.38778004 -2.3995323 -0.12738572
-0.37010407 -2.3962595 -0.12707172
-0.3668001 -2.3886852 -0.12665303
-0.35191065 -2.3889055 -0.12654836
-0.3496635 -2.3851981 -0.126339
-0.33217835 -2.3755965 -0.12571098
-0.31368834 -2.3619909 -0.12487361
-0.29672253 -2.3521044 -0.12424557
-0.27941236 -2.3502009 -0.12403623
-0.27771232 -2.3463802 -0.12382689
-0.26122281 -2.3362153 -0.12319885
-0.25830299 -2.3285022 -0.12278017
-0.24364722 -2.3220484 -0.12236147
-0.24038047 -2.3103409 -0.12173345
-0.22424594 -2.3119628 -0.12173345
-0.22548483 -2.3038151 -0.12131476
-0.20858987 -2.3054061 -0.12131476
-0.1929633 -2.3027582 -0.12110542
-0.19036336 -2.2909501 -0.12047738
-0.17605887 -2.2880874 -0.12026804
-0.17345595 -2.2802742 -0.11984935
-0.15896612 -2.2733214 -0.11943066
-0.1567069 -2.2694743 -0.11922132
-0.14100766 -2.2665014 -0.11901198
-0.14248262 -2.2584043 -0.11859328
-0.1267125 -2.2593439 -0.11859328
-0.10857897 -2.2522898 -0.11817461
-0.093587287 -2.2469654 -0.11786059
-0.076828517 -2.2336121 -0.11712788
-0.061902188 -2.2300792 -0.11691854
-0.046857394 -2.2184601 -0.11629051
-0.014200073 -2.1989365 -0.11524379
-0.00076458935 -2.1909928 -0.11482509
0.0011470363 -2.1909928 -0.11482509
0.01502225 -2.1789575 -0.11419707
0.046053953 -2.1625412 -0.1133597
0.059153762 -2.1582267 -0.11315035
0.060924355 -2.154181 -0.112941
0.073670313 -2.1417923 -0.11231297
0.075398698 -2.1377354 -0.11210363
0.088290676 -2.1332436 -0.11189428
0.10523852 -2.1364741 -0.11210363
0.089983217 -2.1291747 -0.11168494
0.10279503 -2.1245956 -0.1114756
0.11762474 -2.123826 -0.1114756
0.1196238 -2.1197138 -0.11126626
0.89377606 -1.6884043 -0.1001187
0.92201853 -1.6834036 -0.10058971
0.92986166 -1.6699458 -0.10017103
0.94126189 -1.664694 -0.10022336
0.95164096 -1.6576313 -0.10017103
0.96434247 -1.6502744 -0.10017103
0.98093861 -1.6520886 -0.1006944
0.97571081 -1.6459008 -0.1002757
0.9908427 -1.6438358 -0.10058971
1.0231358 -1.621572 -0.10048504
0.90288222 -1.6778843 -0.099857017
0.9148016 -1.6736923 -0.099961683
0.95916438 -1.6440467 -0.099752344
-1.6073321 -3.0837128 -0.06069947
-1.5987177 -3.0724168 -0.060455136
-1.5535107 -3.0338666 -0.059495255
-1.5182486 -3.0147684 -0.058919325
-1.2490995 -2.8672559 -0.05459113
-1.1007885 -2.7859552 -0.052287407
-0.96338975 -2.7115018 -0.050228026
-0.78641421 -2.6096678 -0.047575258
-0.32994765 -2.3566525 -0.041536726
2.5993757 -0.74339551 -0.047191311
-0.00037988756 -2.1776686 -0.038011342
0.13063337 -2.1116409 -0.036929294
0.14620221 -2.1146288 -0.036999103
0.13210058 -2.1055388 -0.03682458
0.17546614 -2.098356 -0.036754768
0.18774471 -2.09127 -0.036650054
0.83997673 -1.7306323 -0.033578429
0.83672297 -1.7277651 -0.033508621
0.98434222 -1.6353108 -0.033316642
1.0174769 -1.6113569 -0.033264287
1.0203352 -1.619011 -0.033403907
-0.9274438 -2.7049873 0.049913883
-0.904006 -2.6970968 0.049652096
-0.87644207 -2.6798933 0.049215786
-0.85348994 -2.6663022 0.048866738
-0.84797859 -2.6554677 0.048657309
-0.82558429 -2.6457615 0.048378069
-0.80289364 -2.6360168 0.048098832
-0.77854192 -2.6266305 0.047819596
-0.77855378 -2.618283 0.047679976
-0.75297248 -2.6070263 0.047365833
-0.73268771 -2.5961814 0.047086593
-0.72979194 -2.5928421 0.047016785
-0.70977819 -2.5838783 0.04677245
-0.70586097 -2.5766587 0.04663283
-0.68440819 -2.565886 0.046353593
-0.66469336 -2.5628011 0.04621397
-0.64310211 -2.5518098 0.045934737
-0.62254542 -2.5383759 0.04562059
-0.61938059 -2.5350332 0.045550782
-0.60018158 -2.5232062 0.045271542
-0.59613508 -2.5159459 0.045131925
-0.57895869 -2.5117459 0.044992302
-0.57630926 -2.5082517 0.044922493
-0.55748957 -2.4961123 0.044643257
-0.53836119 -2.492125 0.044503637
-0.53447622 -2.4888706 0.044433825
-0.51494461 -2.4746048 0.044119686
-0.49472123 -2.4624121 0.043840446
-0.47540247 -2.4560313 0.043665919
-0.45568171 -2.4455287 0.043421589
-0.43704653 -2.4387708 0.043247063
-0.41788858 -2.4218369 0.042898018
-0.41416591 -2.4103031 0.042688586
-0.39703113 -2.4060912 0.042566419
-0.37824944 -2.3949449 0.042322084
-0.36122227 -2.3884718 0.042165015
-0.35884029 -2.3868086 0.042130109
-0.34339818 -2.3830185 0.042025398
-0.34116656 -2.3792984 0.041955583
-0.3245821 -2.3695083 0.041746158
-0.32157755 -2.359827 0.041571636
-0.30522764 -2.3549399 0.041449465
2.6142726 -0.7348389 0.047400735
2.6213288 -0.73929125 0.047540355
-1.5469307 -3.0518067 0.059722137
-1.5454394 -3.0435941 0.059582517
-1.5130903 -3.0341287 0.059181109
-1.4363222 -2.9837861 0.057802372
-1.4047835 -2.9678199 0.057313703
-1.3975859 -2.9579515 0.057104275
-1.3713868 -2.9503543 0.056790132
-1.3693268 -2.9513111 0.056790132
-1.3385234 -2.9357643 0.056318916
-1.3053355 -2.9167454 0.055777892
-1.2763046 -2.9033718 0.055359036
-1.2702599 -2.8951061 0.05518451
-1.2417494 -2.8791597 0.054730747
-1.2349952 -2.8690054 0.054521319
-1.2081556 -2.8587132 0.05417227
-1.1789386 -2.8405983 0.053683605
-1.1495664 -2.8310406 0.053334557
-1.1206455 -2.8103456 0.052810986
-1.1164652 -2.8055532 0.052706268
-1.0922662 -2.7957494 0.052392125
-1.0881346 -2.7909219 0.052287407
-1.0617708 -2.7732394 0.051833645
-1.0586368 -2.7722969 0.051798742
-1.0355846 -2.7639129 0.051519506
-1.0074568 -2.753005 0.051170457
-0.98203468 -2.7366948 0.0507516
-0.97944951 -2.735497 0.050716694
-0.95239717 -2.7196205 0.050297838
-1.6225913 -3.0892701 0.060908899
-1.616719 -3.0833182 0.060769279
-1.5801136 -3.0640376 0.060175899
0.88574725 -1.6892482 0.099961683
0.90558958 -1.6741545 0.099752344
0.92063832 -1.670489 0.099961683
0.93155193 -1.6644273 0.099961683
0.94117373 -1.6544113 0.099752344
0.95513248 -1.6510087 0.099961683
0.965487 -1.6449749 0.099961683
0.88612473 -1.6935598 0.10017103
0.91276103 -1.6838988 0.10038038
0.92206782 -1.6765417 0.1002757
0.96967173 -1.6494659 0.1002757
0.97899359 -1.6416253 0.10017103
0.98218775 -1.6443708 0.10038038
0.99203515 -1.6361134 0.1002757
1.0071471 -1.6338973 0.10058971
1.0015347 -1.6279712 0.10017103
-0.16947584 -2.2805734 0.11984935
-0.18340379 -2.2794957 0.11984935
-0.16690032 -2.2727525 0.11943066
-0.15162122 -2.2678177 0.11911665
-0.13507332 -2.2668629 0.11901198
-0.13632838 -2.2547824 0.11838394
-0.12058371 -2.2556791 0.11838394
-0.11851019 -2.2537889 0.11827926
-0.10339068 -2.2465358 0.11786059
-0.087237045 -2.2352281 0.11723255
-0.070600174 -2.2218277 0.11649985
-0.056689389 -2.2242243 0.11660452
-0.072021537 -2.2177856 0.11629051
-0.054988179 -2.2182734 0.11629051
-0.039113175 -2.21861 0.11629051
-0.025467811 -2.210819 0.11587181
-0.023496088 -2.206846 0.11566247
-0.010334182 -2.1929662 0.11492977
-0.0083975615 -2.1869824 0.11461575
0.00685811 -2.1829934 0.11440641
0.0049350746 -2.1750097 0.11398773
0.01973981 -2.1749256 0.11398773
0.034858774 -2.1707406 0.11377838
0.036685351 -2.1667156 0.11356904
0.049736235 -2.1584642 0.11315035
0.051619977 -2.1584198 0.11315035
0.064444259 -2.1460862 0.11252232
0.080994673 -2.1375306 0.11210363
0.094895288 -2.1349592 0.11199896
0.11052115 -2.1302078 0.11178961
0.10835677 -2.1243191 0.1114756
0.12529071 -2.121387 0.11137092
0.12295335 -2.1195233 0.11126626
0.13959609 -2.1184921 0.11126626
-0.45642373 -2.4341798 0.12979318
-0.43871036 -2.4333756 0.12958384
-0.43404794 -2.4220383 0.12895581
-0.4172965 -2.420927 0.12874646
-0.41830513 -2.4166992 0.12853712
-0.40011597 -2.4116793 0.12811844
-0.39908302 -2.4158993 0.12832777
-0.37908959 -2.3988986 0.12728105
-0.36382926 -2.3972204 0.12707172
-0.36054534 -2.3896372 0.12665303
-0.34168375 -2.3681941 0.12539697
-0.32432765 -2.3645856 0.12508294
-0.30621588 -2.3609574 0.12476893
-0.29056409 -2.3528731 0.12424557
-0.30672425 -2.3488069 0.1241409
-0.28729525 -2.3432136 0.12372221
-0.2723363 -2.342989 0.12361754
-0.26973218 -2.3312268 0.12298951
-0.2533716 -2.3210075 0.12236147
-0.25091615 -2.3172562 0.12215213
-0.23433158 -2.3109622 0.12173345
-0.23614481 -2.3087699 0.12162878
-0.21872959 -2.3074753 0.12147176
-0.20335998 -2.3058734 0.12131476
-0.20105393 -2.2980564 0.12089607
-0.18628785 -2.2952926 0.12068672
-0.70867431 -2.5745816 0.13994636
-0.68733662 -2.5741594 0.13963234
-0.66706818 -2.5609148 0.13869029
-0.66388482 -2.559679 0.13858563
-0.64427423 -2.5461471 0.13764358
-0.63961065 -2.5370252 0.13712022
-0.62216073 -2.5310783 0.13659686
-0.61852634 -2.5258007 0.13628285
-0.59903252 -2.5222843 0.13586415
-0.59984332 -2.5159323 0.13555014
-0.58046591 -2.5122743 0.13513145
-0.57826382 -2.5107329 0.13502678
-0.55724514 -2.4939966 0.13392773
-0.53474849 -2.4764452 0.13277632
-0.51439828 -2.4644322 0.13193896
-0.49599665 -2.4620898 0.13162494
-0.47648978 -2.4547501 0.13104925
-0.45418075 -2.4386628 0.13000253
-0.92460513 -2.6959434 0.14936683
-0.90493721 -2.6920755 0.14884347
-0.89861232 -2.6794512 0.14811078
-0.87739724 -2.6717618 0.14737807
-0.87304455 -2.6647816 0.14695938
-0.85140467 -2.6549995 0.14612199
-0.84894252 -2.6536911 0.14601734
-0.82920492 -2.65574 0.14580798
-0.82807606 -2.6456299 0.14528462
-0.80713052 -2.6416547 0.14476126
-0.80179262 -2.6307547 0.14413324
-0.78125572 -2.6223419 0.14340053
-0.77657986 -2.6133139 0.14287716
-0.75624663 -2.6047156 0.14214447
-0.7511974 -2.5957816 0.14162111
-0.73097897 -2.5849466 0.14078373
-0.72962505 -2.5853293 0.14078373
-0.71057791 -2.5885582 0.14067906
2.6100602 -0.73758864 0.14214447
2.6260827 -0.73964238 0.14298184
-1.1473889 -2.8214393 0.15962468
-1.1200087 -2.8044801 0.15826395
-1.1187903 -2.807117 0.15836863
-1.0904477 -2.7925336 0.15711255
-1.0916696 -2.7899117 0.15700789
-1.0639336 -2.778161 0.15590882
-1.0325921 -2.7537289 0.15412942
-1.006833 -2.7409205 0.15303035
-1.0028573 -2.735997 0.15271634
-0.98226911 -2.7328465 0.15219298
-0.97833806 -2.7278917 0.15187897
-0.95483619 -2.718219 0.15098923
-0.93150437 -2.7083561 0.15009953
-1.3415265 -2.9355612 0.16914983
-1.3345037 -2.9255943 0.16852181
-1.297917 -2.8961062 0.16632369
-1.2660091 -2.8785865 0.16480595
-1.2407377 -2.8754354 0.16412558
-1.2115122 -2.8596935 0.16276483
-1.207182 -2.8550196 0.16245082
-1.1776149 -2.836009 0.16093308
-1.1518793 -2.8282371 0.16004337
0.88861597 -1.7004883 0.16786195
0.90137744 -1.6948867 0.16794911
0.91250139 -1.6855263 0.16768765
0.92159355 -1.6760259 0.16733903
0.93473041 -1.6721597 0.16760048
0.94712967 -1.6686056 0.16786195
0.95991552 -1.661283 0.16786195
0.97048128 -1.652823 0.16768765
0.97887087 -1.6420718 0.16725187
0.99449629 -1.6408156 0.16786195
0.98584557 -1.6297495 0.16664177
-1.5477049 -3.0467386 0.17909366
-1.5105023 -3.0229907 0.17710489
-1.5053523 -3.0166328 0.17668621
-1.4709716 -2.9979908 0.17501146
-1.4352635 -2.9776011 0.17323203
-1.4059714 -2.9716704 0.17228998
-1.4063346 -2.9670787 0.17208064
-1.3771582 -2.9587173 0.17103392
-1.370043 -2.9488099 0.17040588
-1.6172899 -3.0804842 0.18233849
-1.6194406 -3.0793543 0.18233849
-1.5834559 -3.066576 0.18087308
-1.5810083 -3.0566001 0.18034972
0.034632854 -2.1684394 0.18973805
0.048756748 -2.1651785 0.18947658
0.050553165 -2.1611514 0.18912795
0.0635188 -2.1528361 0.18843071
0.080424748 -2.152271 0.18843071
0.094247393 -2.1457267 0.18790779
0.10788714 -2.1371047 0.18721053
0.10913908 -2.1250713 0.18616466
0.12177523 -2.1183977 0.18564174
-0.12221961 -2.2640429 0.19836646
-0.11982157 -2.2561903 0.19766922
-0.10379215 -2.2510009 0.19714628
-0.10547584 -2.2449389 0.19662334
-0.089721307 -2.2436297 0.19644904
-0.072947226 -2.2342706 0.19557749
-0.057092424 -2.2247665 0.19470593
-0.042145967 -2.2151363 0.19383438
-0.040068343 -2.2072041 0.19313712
-0.025959721 -2.2034297 0.1927885
-0.011475213 -2.1915984 0.19174263
-0.0095975688 -2.1995771 0.19243988
0.0034428197 -2.1916256 0.19174263
0.0053455206 -2.1876373 0.191394
0.018674752 -2.1835792 0.19104539
0.020542605 -2.1795774 0.19069678
-0.32557598 -2.3706074 0.2093481
-0.30747426 -2.3609681 0.20830221
-0.2923106 -2.3568707 0.20777929
-0.289446 -2.347187 0.20690772
-0.27213237 -2.3412342 0.20621049
-0.27289596 -2.3371336 0.20586187
-0.255961 -2.3390489 0.20586187
-0.22183083 -2.316514 0.20359582
-0.20396709 -2.3081546 0.20272426
-0.18639874 -2.3016441 0.20202701
-0.18759456 -2.2915518 0.20115545
-0.17144325 -2.2908187 0.20098113
-0.48077732 -2.4619129 0.21945816
-0.47786856 -2.45842 0.21910954
-0.46063283 -2.4495449 0.21806367
-0.457335 -2.4461093 0.21771504
-0.44068429 -2.4370162 0.21666917
-0.42195579 -2.4302185 0.21579762
-0.41958028 -2.4265859 0.21544899
-0.40343952 -2.4212425 0.21475175
-0.4010005 -2.4196279 0.21457744
-0.38265249 -2.4064593 0.21318294
-0.36365896 -2.3932819 0.21178845
-0.34537113 -2.3849175 0.21082973
-0.64496648 -2.5414212 0.22939391
-0.6256218 -2.5442004 0.2292196
-0.60386282 -2.5269246 0.22730216
-0.60025144 -2.519593 0.22660492
-0.58216125 -2.5136096 0.22573337
-0.57950968 -2.5101328 0.22538476
-0.56111091 -2.4979761 0.22399026
-0.55849487 -2.4985623 0.22399026
-0.54153073 -2.494139 0.22329301
-0.53807706 -2.4908097 0.22294438
-0.49856418 -2.4726017 0.22067833
-0.78179967 -2.6224947 0.23941681
-0.76021564 -2.6132741 0.23810948
-0.71125406 -2.5857172 0.23462325
-0.69131231 -2.5746202 0.23322876
-0.68803513 -2.5713732 0.23288015
-0.66560781 -2.5608041 0.23148565
-0.66677928 -2.5543225 0.23096271
-0.64425719 -2.5498219 0.23009115
0.88813436 -1.7006502 0.23557346
0.89505875 -1.6869104 0.23447664
0.92447329 -1.6823059 0.23569533
0.91632318 -1.6709281 0.23398916
0.93352842 -1.6727526 0.23520786
0.94152117 -1.6614257 0.23447664
0.9410103 -1.6571509 0.23398916
0.95169187 -1.6510396 0.23398916
0.96369761 -1.6452112 0.23411104
0.97827053 -1.642367 0.23472038
0.97509426 -1.6396372 0.23423289
1.003837 -1.6361893 0.23569533
2.6212106 -0.73975176 0.2382838
-0.92746645 -2.6981466 0.24961405
-0.9060446 -2.6907034 0.24839386
-0.90226245 -2.6856692 0.24787092
-0.88100582 -2.6843307 0.24717368
-0.8797664 -2.674252 0.24630213
-0.85435706 -2.6626062 0.24464616
-0.83147812 -2.6500084 0.24299021
-0.82784253 -2.6448839 0.24246727
-0.80533159 -2.6341205 0.24098563
-1.0374653 -2.7623296 0.25815529
-1.0120714 -2.7536983 0.25667363
-0.98665798 -2.7427993 0.2550177
-0.96140128 -2.728528 0.25310028
-0.95703894 -2.7237265 0.25257733
-0.93259472 -2.7069173 0.2504856
-1.1831095 -2.8450363 0.26957271
-1.1550831 -2.836103 0.26791674
-1.1548042 -2.8297617 0.2673938
-1.1241759 -2.8163416 0.26530206
-1.0959117 -2.798593 0.26294887
-1.068642 -2.7824574 0.26076996
-1.0647886 -2.7796676 0.26042137
-0.027038481 -2.1973305 0.26981872
-0.013016408 -2.1934884 0.26933128
-0.011082245 -2.1895287 0.2688438
0.00228487 -2.1816154 0.26786885
0.0041806903 -2.1776421 0.26738134
0.018003907 -2.1716163 0.26665017
0.047375087 -2.1711743 0.26665017
0.034018077 -2.1654685 0.26591894
0.049179845 -2.1671629 0.26616266
0.062840566 -2.1489363 0.26396903
0.076832913 -2.1464951 0.26372528
0.091222405 -2.1320236 0.2620191
0.10826533 -2.1371889 0.26275033
0.092995942 -2.1299598 0.26177537
0.1057092 -2.1234045 0.26104417
0.12286825 -2.124469 0.2612879
-1.3076859 -2.913815 0.27942133
-1.2794926 -2.9023695 0.27750388
-1.274256 -2.8959672 0.27680662
-1.2473346 -2.8838012 0.2748892
-1.2429521 -2.8791835 0.27436629
-1.2146111 -2.8642211 0.27218735
-0.15340646 -2.2677481 0.27908084
-0.13859297 -2.2627349 0.27834961
-0.1223609 -2.2557187 0.27737466
-0.10740733 -2.2525055 0.27688718
-0.10507046 -2.2446668 0.27591223
-0.091275737 -2.243283 0.27566847
-0.089002579 -2.2354281 0.27469352
-0.075011291 -2.2260103 0.27347484
-0.058211092 -2.215591 0.27213427
-0.041568752 -2.2050459 0.27079371
-1.4129982 -2.9771092 0.28831118
-1.4083604 -2.972693 0.28778824
-1.379554 -2.9598129 0.28569651
-1.3674023 -2.9390981 0.28360477
-1.3431051 -2.9349496 0.2823846
-1.3377446 -2.9286375 0.28168735
-0.29173335 -2.342176 0.28980532
-0.27345571 -2.3383846 0.28907412
-0.25747821 -2.3322091 0.28809914
-0.25414637 -2.3205934 0.28663671
-0.23854542 -2.3142664 0.28566176
-0.22243863 -2.3058987 0.28444308
-0.21986002 -2.3001637 0.28371185
-0.20454904 -2.3055618 0.28419933
-0.18811819 -2.2930183 0.28249317
-0.17270799 -2.2862678 0.28151822
-0.1701214 -2.2784991 0.28054324
-0.15592837 -2.2755349 0.28005576
-1.5538144 -3.0521667 0.29964143
-1.5440893 -3.0369956 0.29807264
-1.5128556 -3.0237398 0.29580659
-1.5094912 -3.0209672 0.29545796
-1.4779985 -3.0076661 0.29319191
-1.4502178 -3.0012567 0.29162312
-1.4450026 -2.9971371 0.29110017
-0.4019157 -2.4043322 0.29931113
-0.39958531 -2.4006958 0.29882365
-0.38281557 -2.4034269 0.29882365
-0.38302919 -2.3913312 0.29736122
-0.36692575 -2.3978715 0.2978487
-0.36274332 -2.3844533 0.29614252
-0.34645125 -2.3748388 0.29468012
-0.34365255 -2.3672221 0.29370514
-0.32631311 -2.3576508 0.29224271
-0.3077324 -2.3501382 0.291024
-0.29034224 -2.3443491 0.29004908
-0.27560639 -2.3461273 0.29004908
-1.632494 -3.0989218 0.30643961
-1.6266208 -3.0930071 0.30574232
-1.5934103 -3.0766284 0.30312768
-1.5894321 -3.0742004 0.30277905
-0.5164097 -2.4676106 0.30954817
-0.49978194 -2.4609046 0.30832946
-0.4804391 -2.4647541 0.30832946
-0.49724117 -2.459394 0.30808574
-0.47953773 -2.4487491 0.30637956
-0.46212199 -2.4480553 0.30589208
-0.459131 -2.4486179 0.30589208
-0.44289306 -2.4395025 0.30442965
-0.43822244 -2.4282439 0.30296722
-0.42073703 -2.4132013 0.30077356
-0.41829157 -2.4116118 0.30052981
0.88775384 -1.700284 0.30379578
0.88261867 -1.6940508 0.3025443
0.89627367 -1.6913384 0.30317003
0.89589632 -1.6870666 0.3025443
0.90709388 -1.6821944 0.30270073
0.91786522 -1.674089 0.30238783
0.92712677 -1.6633261 0.30160567
0.93993938 -1.6606609 0.3022314
0.95562315 -1.6585286 0.30317003
0.96502811 -1.6507862 0.30285716
0.96518236 -1.6484073 0.3025443
0.97753799 -1.6457071 0.30317003
0.9942345 -1.6449139 0.30442151
0.97464663 -1.6382337 0.30191854
-0.62202871 -2.5229363 0.31905395
-0.59936756 -2.5100515 0.31686032
-0.58045375 -2.5022674 0.31539792
-0.56384742 -2.5040271 0.31515417
-0.55905485 -2.4949307 0.31393546
-0.54170454 -2.4865665 0.31247303
-0.5369857 -2.4794662 0.31149808
-0.52062798 -2.4748385 0.31052312
-0.71161127 -2.5764601 0.3281942
-0.68891287 -2.5692656 0.32660985
-0.68857598 -2.5590787 0.32539117
-0.66804326 -2.5573347 0.32453808
-0.64382648 -2.5369227 0.32136947
-0.82797205 -2.6404474 0.33977175
-0.80823666 -2.6403275 0.33904055
-0.80716819 -2.6302738 0.33782184
-0.78537107 -2.6244342 0.33635944
-0.78024346 -2.6156075 0.33514073
-0.76147175 -2.6107965 0.33392206
-0.75863945 -2.6095536 0.33367831
-0.73725951 -2.5950439 0.33124092
-0.73328269 -2.5879183 0.33026594
0.091474824 -2.1423192 0.33961928
0.075477794 -2.1399779 0.33914998
0.10534892 -2.1387155 0.33914998
0.10672086 -2.1287582 0.3375856
0.12161185 -2.1220236 0.33664703
0.11916782 -2.1182051 0.33602124
2.6066301 -0.74005938 0.33270332
2.6110952 -0.73886549 0.33319083
-0.90840602 -2.691503 0.34879011
-0.90526015 -2.6883738 0.3483026
-0.88399935 -2.6808119 0.34659645
-0.87716448 -2.666343 0.34464651
-0.854918 -2.6547961 0.34245288
-0.85124296 -2.6497221 0.34172165
-0.83100563 -2.643656 0.34025922
-0.028267778 -2.2033515 0.34900534
-0.012279084 -2.19856 0.34822315
0.0030615223 -2.1926661 0.34728456
-0.014133788 -2.1886718 0.34665883
0.001145845 -2.1887174 0.34665883
0.017856853 -2.1767919 0.34478158
0.032059226 -2.1736655 0.34431231
0.046911895 -2.158577 0.34196579
0.061782289 -2.1512861 0.34087074
0.077915944 -2.1557038 0.3416529
-1.0136417 -2.749074 0.35975835
-1.0082952 -2.7404661 0.35853964
-0.98701388 -2.7355437 0.35707721
-0.98174191 -2.7268934 0.3558585
-0.95661056 -2.7126675 0.35317737
-0.93247342 -2.7042663 0.35122749
-0.12418103 -2.2672973 0.35964286
-0.10769034 -2.2542968 0.35745281
-0.091467276 -2.2431514 0.35557556
-0.076547094 -2.2367926 0.35448053
-0.05900085 -2.2234919 0.35229045
-0.042973861 -2.2179317 0.35135183
-1.1190685 -2.7978718 0.36999539
-1.0917883 -2.7830563 0.3670705
-1.0670903 -2.7798653 0.36560807
-1.0652374 -2.7678173 0.36414564
-1.0405065 -2.7623653 0.36243945
-1.0371805 -2.7593744 0.36195198
-0.22503103 -2.3200569 0.36918539
-0.24060875 -2.312535 0.36824676
-0.22281717 -2.3182859 0.36887249
-0.2066955 -2.3068876 0.36683887
-0.19033051 -2.2954118 0.36480519
-0.18840434 -2.2916069 0.36417946
-0.17280507 -2.2849116 0.362928
-0.15684929 -2.2860625 0.362928
-1.1857188 -2.8457029 0.37852621
-1.1535528 -2.8224702 0.37438264
-1.1505748 -2.8193979 0.37389517
-1.1254525 -2.8081453 0.37145779
-0.33057803 -2.3732185 0.37951005
-0.3119601 -2.3647792 0.37778929
-0.29512465 -2.3559902 0.3760685
-0.2916055 -2.3444855 0.37419128
-0.27521539 -2.3375154 0.37278336
-0.25627235 -2.3287385 0.37106261
-0.24000996 -2.3264987 0.37043685
0.89722413 -1.6942047 0.37265
0.90782869 -1.6874317 0.3724592
0.93658423 -1.6806382 0.37398565
0.9046427 -1.6779982 0.37055111
0.91748995 -1.6754861 0.37131435
0.92939198 -1.6711603 0.37169594
0.945867 -1.6731765 0.37360403
0.9441328 -1.6673908 0.3724592
0.95752472 -1.6665325 0.37360403
0.95281261 -1.655654 0.37131432
0.96715623 -1.6564163 0.37284079
0.979698 -1.6513125 0.37322241
0.96434784 -1.6489619 0.37131432
0.97984797 -1.6489403 0.37284079
1.005651 -1.6413953 0.37417644
1.0158544 -1.6339445 0.37398565
1.0089755 -1.6197264 0.3709327
-1.2760224 -2.8890331 0.3877883
-1.2414031 -2.8673401 0.38364473
-1.2156992 -2.8653986 0.3821823
-1.2145932 -2.8572416 0.38120735
-0.42401874 -2.424521 0.38983473
-0.38531154 -2.4109704 0.38670605
-0.38678867 -2.4067326 0.38608032
-0.36668563 -2.3948903 0.38373381
-0.34885472 -2.3825805 0.38138729
-0.34662199 -2.3789136 0.3807615
-0.32946327 -2.3773625 0.38013577
-1.374691 -2.9466939 0.39924401
-1.3427091 -2.9286788 0.39558792
-1.3381858 -2.9242003 0.39485672
-1.3100101 -2.9108281 0.39193183
-1.3022834 -2.8990662 0.39022568
-0.5016225 -2.4721782 0.39953369
-0.48303446 -2.4597743 0.39703071
-0.47975072 -2.4543788 0.39609212
-0.46481034 -2.4552417 0.39577925
-0.45962012 -2.4441595 0.39390203
-0.44482744 -2.4428794 0.3932763
-0.44156492 -2.4394565 0.39265057
-1.4452639 -2.9856818 0.40728739
-1.4374777 -2.9762166 0.40582496
-1.4052695 -2.9608252 0.40241259
-0.58561105 -2.5145259 0.40891972
-0.58072859 -2.5014648 0.40672967
-0.56456828 -2.4990864 0.40579104
-0.5597831 -2.492065 0.40453959
-0.54025972 -2.4882851 0.4032881
-0.52168602 -2.4841721 0.40203664
-0.54161322 -2.4799037 0.40203664
-0.5230633 -2.4778261 0.40109801
-0.5041362 -2.4756987 0.40015942
-1.5508254 -3.0462952 0.41971806
-1.5475405 -3.0346012 0.41825563
-1.5158373 -3.0283787 0.41581824
-1.5129755 -3.0187113 0.41459954
-1.4795859 -3.0042682 0.4111872
-1.474861 -2.9999561 0.410456
-0.67270094 -2.564184 0.41987014
-0.66851771 -2.5591531 0.41893157
-0.64806044 -2.5470879 0.41627216
-0.62699276 -2.5411665 0.41455138
-0.62778533 -2.5348663 0.41361275
-0.60915041 -2.5353458 0.41298702
-0.60463876 -2.5262709 0.4114227
0.044850022 -2.1591141 0.41977981
0.061693739 -2.1547704 0.41901657
0.075657368 -2.1503963 0.41825336
0.089402139 -2.1420088 0.41672686
0.091104344 -2.1380069 0.41596362
0.10406733 -2.1354499 0.41558203
0.10563914 -2.1294758 0.41443717
-1.6238146 -3.081141 0.42763954
-1.5868171 -3.0612812 0.42337415
-0.75849563 -2.6039722 0.42956907
-0.73904961 -2.6013448 0.42831761
-0.73987061 -2.5990574 0.42800474
-0.71737421 -2.5920362 0.42597109
-0.69682431 -2.5843401 0.42393744
-0.69142956 -2.5714726 0.42174736
-0.045038588 -2.2052565 0.42874783
-0.015378079 -2.202718 0.42817542
-0.030645665 -2.1947045 0.42664891
-0.01339599 -2.1929142 0.42626733
-0.00038152683 -2.1870656 0.42512247
0.001525562 -2.1851017 0.42474085
0.014806636 -2.1752353 0.42283276
0.016659796 -2.1693323 0.4216879
0.02988375 -2.167227 0.42130631
0.031746361 -2.1652369 0.42092466
0.046861794 -2.1649625 0.42092466
0.060140293 -2.1665986 0.42130631
-0.81329554 -2.6453018 0.4383294
-0.80855274 -2.6364264 0.43676507
-0.78743303 -2.6263173 0.4342621
-0.78333545 -2.6192961 0.43301064
-0.76243019 -2.6089976 0.43050769
-0.12585545 -2.2581646 0.43962395
-0.10877013 -2.2521725 0.43828827
-0.093987063 -2.2518554 0.43809745
-0.092092782 -2.2440741 0.436571
-0.077718474 -2.2367604 0.43504456
-0.075822711 -2.2270033 0.43313646
-0.061719723 -2.2235107 0.4323732
-0.028961813 -2.2123983 0.43008351
2.6242113 -0.74530023 0.43207204
-0.90601838 -2.6859748 0.44896698
-0.88508892 -2.6825452 0.44740263
-0.86000109 -2.6657965 0.44364822
-0.83480722 -2.6541271 0.44067594
-0.20759785 -2.3033776 0.44954601
-0.19239126 -2.3007572 0.44878277
-0.17372222 -2.2943666 0.4472563
-0.15856068 -2.2875924 0.44572985
-0.14284664 -2.2768252 0.44344014
-0.14001125 -2.2632322 0.44076881
-0.12399242 -2.2602339 0.44000554
0.83589137 -1.7214503 0.44180387
0.8810907 -1.6943679 0.44090408
0.90447354 -1.6797893 0.44045416
0.91468823 -1.6731384 0.44022921
0.96393651 -1.650902 0.44135398
-0.96637779 -2.7319975 0.4589788
-0.96136481 -2.7253881 0.45772728
-0.94017822 -2.718142 0.45553723
-0.93587369 -2.7133591 0.45459861
-0.91168952 -2.6965694 0.4508442
-0.29339197 -2.3454795 0.4594681
-0.27841783 -2.3453274 0.45908648
-0.25912479 -2.3396361 0.45755997
-0.24197572 -2.3237076 0.45412543
-0.2249071 -2.3145733 0.45202655
-1.0413587 -2.7624373 0.4675827
-1.0129189 -2.7456362 0.4635154
-0.98840922 -2.7409093 0.46148172
-0.98897952 -2.7365029 0.46085599
-0.34914172 -2.3874454 0.46900854
-0.33373463 -2.3837008 0.46786368
-0.32949004 -2.3684349 0.46481073
-0.31475741 -2.3684571 0.46442911
-0.31114897 -2.3570528 0.46213943
-0.29551962 -2.34917 0.46023133
-1.1287655 -2.8121467 0.47994098
-1.1019816 -2.8047175 0.47728163
-1.0742545 -2.7868927 0.4730579
-1.0668601 -2.7749224 0.47086781
-0.42437488 -2.4290552 0.47931221
-0.40789852 -2.4219224 0.47740412
-0.40416285 -2.412596 0.47549605
-0.38816759 -2.4072673 0.47396958
-0.36916834 -2.4013157 0.47225231
-0.38482344 -2.3998508 0.4724431
-1.1878639 -2.846653 0.48854488
-1.1568681 -2.8284676 0.48400828
-1.1290057 -2.8184352 0.4808796
-0.50178754 -2.4663649 0.4892343
-0.4833625 -2.4580379 0.48694459
-0.46286494 -2.4519908 0.48503649
-0.4650667 -2.4495759 0.4846549
-0.44398266 -2.4455042 0.4831284
-0.42708817 -2.4345598 0.48045707
0.11639986 -2.1150801 0.48904356
0.13300876 -2.108243 0.48769391
0.14524867 -2.1035283 0.48679405
-1.2482152 -2.8789382 0.49699235
-1.2172625 -2.8621333 0.49261218
-0.58334482 -2.5028172 0.49953794
-0.56434768 -2.4981122 0.49782068
-0.54673409 -2.494993 0.49648505
-0.54159582 -2.4860673 0.49457693
-0.5222044 -2.4801822 0.49266884
-0.52480119 -2.479634 0.49266884
-0.50511885 -2.4716966 0.49037915
0.045260042 -2.1606791 0.49894145
0.058299534 -2.1545181 0.49759173
0.060016334 -2.1486225 0.49624202
0.074743055 -2.1403611 0.49444243
0.089846969 -2.143681 0.49534222
0.072809003 -2.1384778 0.49399251
0.087576553 -2.1340232 0.49309272
0.10302708 -2.1255288 0.4912931
-1.3118091 -2.9134653 0.50606555
-1.2800721 -2.8941002 0.50121611
-1.279647 -2.8986073 0.50184184
-0.6464842 -2.5399623 0.50946003
-0.62998134 -2.5380378 0.50831515
-0.60627198 -2.5175607 0.50335413
-0.016526131 -2.2020144 0.50838935
-0.029897472 -2.1960268 0.50703967
-0.014539997 -2.1922846 0.50613987
-0.00152918 -2.1903837 0.50568998
0.00038209619 -2.1884353 0.50524008
0.014686942 -2.1854625 0.50456524
0.028518196 -2.1785049 0.50299054
0.030392228 -2.1765308 0.50254071
0.043491669 -2.1665628 0.50029117
-1.3813994 -2.9543393 0.51654667
-1.3785013 -2.9535129 0.5162338
-1.346118 -2.9347596 0.51138437
-0.69261062 -2.5704973 0.517474
-0.69434124 -2.5679963 0.51709241
-0.6730299 -2.5645308 0.51537514
-0.65303355 -2.5545006 0.51251298
-0.11093531 -2.2441573 0.51873708
-0.10897699 -2.2442532 0.51873708
-0.094852582 -2.235142 0.5164876
-0.077896714 -2.2250724 0.51401317
-0.062250279 -2.2216661 0.51311338
-0.046574816 -2.2142534 0.51131374
-0.032011341 -2.2096398 0.510189
0.88400346 -1.7003278 0.51349699
0.87896085 -1.6942394 0.51142645
0.8898657 -1.6863533 0.51090884
0.90223688 -1.6819595 0.51142645
0.94061422 -1.6652412 0.51246172
0.94884819 -1.6561118 0.51142645
0.95192724 -1.6588002 0.51246172
0.98787677 -1.6421559 0.51349699
-1.4483339 -2.994689 0.52687138
-1.449224 -2.9898684 0.52624559
-1.4145408 -2.9736533 0.52155256
-0.76517731 -2.6133153 0.52930421
-0.76170135 -2.6081953 0.52815932
-0.74111784 -2.600852 0.52567881
-0.71690726 -2.5842068 0.52129018
-0.15830418 -2.2667098 0.52458584
-0.14160846 -2.2697668 0.52503574
-0.14285079 -2.2579732 0.5223363
-0.12616658 -2.2531114 0.52098662
2.6162167 -0.74450803 0.52873176
-1.5222063 -3.0331614 0.5375089
-1.517962 -3.0286605 0.53657025
-1.4845631 -3.0143743 0.53219014
-1.4800254 -3.001195 0.53000003
-0.83300114 -2.6419406 0.538463
-0.78531313 -2.6175852 0.53121227
-0.226005 -2.3216677 0.53853279
-0.24240954 -2.3160934 0.537633
-0.21075691 -2.3113608 0.53583342
-0.22688812 -2.3098333 0.53583342
-0.20768832 -2.2998989 0.53313398
-0.19298165 -2.2933574 0.5313344
-1.5968606 -3.0793414 0.54939789
-1.5658025 -3.0664432 0.54533058
-1.5582788 -3.0569761 0.5434534
-0.88783115 -2.6861267 0.54991156
-0.86033684 -2.662066 0.54380566
-0.8572734 -2.6589291 0.54304242
-0.31391931 -2.3527153 0.54798079
-0.29535657 -2.3511896 0.54708099
-0.27872163 -2.3443885 0.5450564
-0.26218933 -2.3374708 0.54303181
-0.25928712 -2.3299518 0.54123223
-1.6306822 -3.092864 0.55377805
-1.6008312 -3.081732 0.55002367
-0.93714458 -2.710902 0.55754393
-0.93839407 -2.7083919 0.55716228
-0.9112829 -2.696919 0.5533461
-0.91064662 -2.6888442 0.55181968
-0.36834145 -2.3862276 0.55742872
-0.35043854 -2.3731649 0.55382949
-0.34893325 -2.3773258 0.55472928
-0.33139414 -2.3699958 0.5524798
-0.31381488 -2.3645246 0.55068022
-0.29895204 -2.3664498 0.55068022
-0.99350053 -2.7430196 0.56708437
-0.98710483 -2.7328064 0.56479466
-0.96363217 -2.7234759 0.56155086
-0.42283621 -2.4127963 0.56552696
-0.40575638 -2.4117751 0.56462717
-0.40646625 -2.4057267 0.56327748
-0.38934997 -2.4065819 0.56282753
-0.38643059 -2.3991575 0.56102794
-1.0716337 -2.7829874 0.57967776
-1.0475004 -2.7743301 0.57643402
-1.021485 -2.7599523 0.57204539
-1.0177164 -2.7571592 0.57128215
-0.5023784 -2.4571981 0.57902396
-0.48515287 -2.4546983 0.57767427
-0.48150599 -2.4474723 0.57587469
-0.46508837 -2.4427106 0.5740751
-0.4610801 -2.4355376 0.57227546
-0.44563895 -2.4304855 0.57047588
0.04406191 -2.1574285 0.57820177
0.058207322 -2.1580591 0.57846057
0.072812051 -2.1440849 0.57483709
0.086570166 -2.136807 0.57302535
0.10111908 -2.1284318 0.57095486
0.11698341 -2.1256838 0.57043719
0.13094537 -2.1287408 0.57147247
-1.1293921 -2.8151281 0.58959985
-1.1035359 -2.8000565 0.58502042
-1.0989374 -2.7955372 0.58387554
-1.0754763 -2.7857141 0.580441
-0.031105885 -2.2001593 0.58958983
-0.0026858435 -2.1984456 0.58907217
0.012224385 -2.1887538 0.58648396
0.014047246 -2.1752198 0.58286053
0.027237436 -2.1673665 0.58078998
-1.1658763 -2.8427005 0.59723216
-1.1601727 -2.8344293 0.5953241
-1.1342857 -2.8216252 0.59112626
-0.60632598 -2.514894 0.59724504
-0.58587253 -2.506731 0.59432065
-0.064804703 -2.2361455 0.59942496
-0.063024931 -2.2284656 0.59735435
-0.048852049 -2.2210925 0.59528387
-0.046750695 -2.2134082 0.59321326
-0.033170998 -2.2097895 0.59217799
-0.017126616 -2.205142 0.59088385
-1.2469137 -2.8745632 0.60906237
-1.2200879 -2.8604565 0.60448295
-1.2165526 -2.8576946 0.60371965
-1.1920344 -2.855248 0.60143
-1.1917547 -2.8489814 0.60028511
-0.65050048 -2.5390513 0.60511833
-0.14527181 -2.2710798 0.60977769
-0.14304698 -2.2673495 0.60874242
-0.1273877 -2.2537713 0.60486013
-0.094719097 -2.2505467 0.60356599
-0.11141029 -2.2497818 0.60356599
-0.096351512 -2.242743 0.6014955
-0.080691874 -2.243361 0.6014955
-0.078989588 -2.2395554 0.60046023
-1.289624 -2.9115744 0.6189844
-1.2820344 -2.8999047 0.6163131
-1.2536157 -2.8844953 0.61135209
-0.71825081 -2.5794363 0.61816549
-0.69665807 -2.5712214 0.61501622
-0.67322922 -2.5552936 0.61006725
-0.21118888 -2.3027625 0.61961281
-0.20905575 -2.2971377 0.61805987
-0.19349138 -2.2946236 0.6170246
-0.17622156 -2.2902017 0.61547172
-0.17806982 -2.2881215 0.61495411
-0.16209164 -2.2893088 0.61495411
-0.15928534 -2.2778864 0.61184824
-1.3510572 -2.9441741 0.62966973
-1.3506519 -2.9378788 0.62852484
-1.3220332 -2.9293418 0.62470871
-1.3151498 -2.919524 0.62241894
-0.76517338 -2.6065533 0.62716353
-0.71905684 -2.5893257 0.62041503
-0.26242834 -2.3285952 0.62789506
-0.24636897 -2.3284063 0.62737739
-0.24312724 -2.3170929 0.62427157
-0.2289685 -2.3185346 0.62427157
-0.22581589 -2.3071976 0.62116575
2.6175833 -0.74810845 0.62851328
2.6219835 -0.74689156 0.62941307
-1.4150045 -2.9706211 0.63959181
-1.3840473 -2.961349 0.63539398
-1.3836167 -2.9550478 0.63424915
-0.81597918 -2.64417 0.638861
-0.81069338 -2.633564 0.63616157
-0.79121888 -2.6272717 0.63346219
-0.78668475 -2.6204951 0.63166255
-0.31628877 -2.3657532 0.63954186
-0.29994655 -2.3610651 0.63773018
-0.27906126 -2.3402796 0.63151848
-0.2800568 -2.3382154 0.63100088
-0.26146966 -2.3384228 0.63048321
-1.4538875 -2.9954927 0.64722413
-1.4483713 -2.98944 0.64569765
-0.85936993 -2.6590745 0.6451596
-0.83609462 -2.6501417 0.64156044
-0.83676952 -2.6458411 0.64066058
-0.37127483 -2.3900127 0.64808291
-0.36977887 -2.3941541 0.64911819
-0.35291034 -2.3927934 0.64808291
-0.35401416 -2.3887241 0.64704764
-0.3356882 -2.3855157 0.6454947
-1.493894 -3.023994 0.65561974
-1.4883093 -3.0179932 0.65409327
-0.93481344 -2.6995804 0.65955651
-0.91204131 -2.6867871 0.65505749
-0.88712674 -2.6745927 0.65055847
-0.42544129 -2.4202063 0.6584357
-0.40803149 -2.4124267 0.65558863
-0.39074001 -2.4045238 0.65274167
-0.38740882 -2.3972354 0.65067112
-1.5610108 -3.0550852 0.66687745
-1.5269547 -3.0426228 0.66172564
-1.5267843 -3.0383146 0.6609624
-0.96173906 -2.7128594 0.66450542
-0.9384473 -2.7024455 0.6604563
-0.44468427 -2.4324572 0.66257679
-0.42956981 -2.4312484 0.66154152
-0.44653237 -2.4281905 0.66154152
-1.6329058 -3.0918479 0.67966169
-1.6341457 -3.0889719 0.67928004
-1.6034817 -3.0828876 0.67546391
-1.5949962 -3.0718098 0.67279255
-1.0164413 -2.7448535 0.675753
-0.50619543 -2.463809 0.6739648
-1.0726551 -2.7798505 0.6879003
-1.0452323 -2.7632084 0.6820516
-0.56667018 -2.4942091 0.68535286
-0.54549181 -2.4831054 0.68121177
-0.52864057 -2.4827974 0.68017644
-1.1034632 -2.8013048 0.69509876
-1.0788122 -2.7900066 0.69059974
-1.1011258 -2.7896576 0.69239932
-0.61142009 -2.5253789 0.69622326
-0.60876298 -2.5240338 0.69570565
-0.58782274 -2.5081627 0.69027042
-1.1594746 -2.822881 0.70454669
-0.67399472 -2.5563815 0.70838779
-0.6521576 -2.551074 0.70554072
-0.65338725 -2.5447762 0.70398778
-0.63511527 -2.5454161 0.70295256
-0.63058633 -2.5385802 0.70088202
-1.2222722 -2.8641906 0.7189436
-1.1934602 -2.8488681 0.71309483
-1.1869607 -2.8389132 0.71039546
-0.72167188 -2.5864813 0.71951699
-0.71934789 -2.5851233 0.71899933
-0.69954771 -2.5765417 0.7153759
-0.69471967 -2.565841 0.71227002
-1.2544456 -2.8864048 0.72659194
-1.2517922 -2.8748081 0.72389251
-0.76524884 -2.6101823 0.72883451
-0.74514991 -2.6029317 0.72546983
-1.3183033 -2.915647 0.73873925
-1.2834682 -2.8949466 0.73109096
-0.81410074 -2.6348147 0.73892844
-0.7913062 -2.6225865 0.73401088
-0.78947514 -2.6231382 0.73401088
-0.76970702 -2.6169267 0.730905
2.6230218 -0.74867249 0.730905
-1.3477943 -2.9289684 0.74436307
-0.84139371 -2.6556258 0.74643415
-0.83779329 -2.6506863 0.74488121
-1.4149933 -2.965266 0.75853497
-1.385366 -2.9534135 0.7531361
-0.91112018 -2.6856134 0.75989276
-0.89054918 -2.6833463 0.75756335
-0.86826164 -2.6754124 0.75368112
-0.86401325 -2.6686664 0.75161052
-1.4515102 -2.986613 0.76663321
-1.4468724 -2.9823658 0.76528347
-0.94123751 -2.7059066 0.76765728
-0.93634319 -2.6994264 0.76558679
-0.91423863 -2.6886349 0.76092798
-1.4842381 -3.0031254 0.77338171
-0.99172187 -2.7351258 0.77956301
-0.96916866 -2.7247517 0.77490425
-0.96291572 -2.7146721 0.77179843
-1.5235543 -3.0292506 0.7828297
-1.022783 -2.7545953 0.78732753
-1.018846 -2.7498741 0.78577471
-0.99429095 -2.7362487 0.78008062
-1.59863 -3.0696328 0.79902619
-1.5615319 -3.0515018 0.79137778
-1.0752478 -2.7822318 0.7992332
-1.044857 -2.7607622 0.79095107
-1.6333722 -3.0888135 0.80667448
-1.6000823 -3.0776641 0.80082577
-1.1072352 -2.8008406 0.80699778
-1.1038618 -2.7980189 0.8059625
-1.0797695 -2.7866962 0.80078614
-1.1626379 -2.8305826 0.81993878
-1.1340907 -2.8140416 0.81295061
-1.1963038 -2.8500714 0.82822096
-1.1905817 -2.8419967 0.82563275
-1.2625123 -2.8952849 0.84633833
-1.2558652 -2.8855374 0.84323245
-1.3227347 -2.9213717 0.85927927
-1.2928933 -2.9093504 0.85306764
-1.2877287 -2.9031882 0.85099703
-1.3528059 -2.9331174 0.86549091
-1.3499509 -2.9323063 0.86497331
-1.3230814 -2.9275758 0.86083221
-1.3904977 -2.9603214 0.87636131
-1.3876107 -2.9595423 0.87584364
-1.4198904 -2.97419 0.88309062
-1.4194659 -2.9679699 0.88153768
-1.4646757 -3.0083587 0.89654922
-1.4569844 -2.9992099 0.89344335
-1.49554 -3.0233388 0.90379614
-1.4954085 -3.0190928 0.90276086
-1.5645592 -3.0534735 0.91932529
-1.5295656 -3.036582 0.91104305
-1.6110253 -3.0881679 0.93330151
-1.6044068 -3.0807252 0.93071336
