# .PCD v0.7 - Point Cloud Data file format
VERSION 0.7
FIELDS x y z
SIZE 4 4 4
TYPE F F F
COUNT 1 1 1
WIDTH 1444
HEIGHT 1
VIEWPOINT 0 0 0 1 0 0 0
POINTS 1444
DATA ascii
2.4695013 -0.35762057 0.30637956
1.944904 -0.28199768 -0.24130133
2.4963248 -0.36283961 0.39953369
2.4862142 -0.36181316 -0.21980678
2.5157847 -0.36701328 0.49419534
2.4821556 -0.36299223 -0.13146794
2.47 -0.36165494 0.57632458
2.4711435 -0.36270347 -0.043596111
2.4942138 -0.36697909 0.67551774
0.92851865 -0.1390994 -0.25157213
2.5016332 -0.37521079 0.044154592
1.0386977 -0.15616122 -0.24249724
2.4885135 -0.37457541 0.13188663
1.1861236 -0.17896084 -0.23316859
2.5314345 -0.38284349 0.22399026
1.4413987 -0.2182484 -0.23089729
2.4807479 -0.3765066 0.30808574
1.978213 -0.3009426 -0.2456886
2.48208 -0.37803841 0.39765644
2.4875667 -0.37976256 -0.22015539
2.4821103 -0.37981623 0.48808944
2.4776533 -0.37957677 -0.13136327
2.4674151 -0.37888983 0.57632458
2.4586692 -0.37842539 -0.043421589
2.4782929 -0.38188857 0.67189431
0.97335535 -0.15259743 -0.26399544
2.4930265 -0.39173496 0.044049874
1.0491611 -0.16504474 -0.24519664
2.4641361 -0.38851759 0.13073523
1.1848453 -0.18723711 -0.23316859
2.4776039 -0.39197066 0.21945816
1.467154 -0.23263688 -0.23527746
2.4781275 -0.39338362 0.30808574
1.9839605 -0.31564844 -0.24666359
2.4754789 -0.3947351 0.39703071
2.4731195 -0.39480147 -0.21910954
2.4852836 -0.39763305 0.4892343
2.4709988 -0.39623222 -0.13115391
2.4667029 -0.39598501 0.57677448
2.4540617 -0.3948344 -0.043386683
2.4660997 -0.39721274 0.6693061
0.93797779 -0.15359975 -0.25467795
2.4863555 -0.40804753 0.043980066
1.0595511 -0.17407785 -0.24789605
2.4831123 -0.40885058 0.13188663
1.1912917 -0.19657627 -0.23469506
2.4906046 -0.4114238 0.22085266
1.4382526 -0.23810117 -0.23089729
2.4910598 -0.41283894 0.31003565
1.856437 -0.30832991 -0.2310643
2.4922204 -0.41481918 0.40015942
2.4821665 -0.41359103 -0.22015539
2.4902649 -0.41583386 0.49076074
2.4938526 -0.41732779 -0.13251466
2.5081556 -0.42017135 0.58712226
2.4868152 -0.41748884 -0.044014968
2.4900107 -0.41847214 0.67655301
0.92548484 -0.15802976 -0.25157213
2.4973176 -0.42732295 0.0442244
1.0276095 -0.1760217 -0.24069762
2.4881458 -0.42709455 0.13230531
1.1860565 -0.20401491 -0.23393184
2.4956002 -0.42971945 0.22154988
1.4521714 -0.25057256 -0.23340026
2.4823236 -0.42877173 0.30930442
1.8660313 -0.32299039 -0.23252673
2.4796073 -0.43008551 0.39859506
2.4734051 -0.42945439 -0.21963248
2.4738374 -0.43041912 0.48808944
2.4850516 -0.43326399 -0.13220063
2.4860404 -0.43388346 0.58262324
2.4484596 -0.42820537 -0.043386683
2.4699783 -0.43241304 0.67189431
0.9357999 -0.16635436 -0.25467795
2.4726954 -0.4404541 0.043840446
1.0225506 -0.18232815 -0.23979783
2.4655199 -0.44050801 0.13125859
1.1807752 -0.21139134 -0.23316859
2.4808509 -0.44458771 0.22050403
1.4387665 -0.25835648 -0.23152302
2.4578557 -0.44179517 0.30662328
1.879419 -0.33849949 -0.23447664
2.4746785 -0.44660273 0.39828217
2.4723849 -0.44663444 -0.21980678
2.474714 -0.44794729 0.48885265
2.4682884 -0.44767404 -0.13146794
2.4561858 -0.44592178 0.57632458
2.4671297 -0.44879827 -0.043770637
2.4783814 -0.45129198 0.67500007
0.92315835 -0.17109728 -0.25157213
2.4792309 -0.4603934 0.044014968
1.0326822 -0.19195564 -0.24249724
2.4602611 -0.45820349 0.13115391
1.1869136 -0.22148167 -0.23469506
2.4794836 -0.46312696 0.22067833
1.4329507 -0.2681694 -0.23089729
2.4720309 -0.46352121 0.30881694
1.8300623 -0.34347874 -0.22862691
2.463573 -0.46327066 0.39703071
2.4748373 -0.46628341 -0.22032972
2.4675055 -0.46534798 0.48808944
2.4669032 -0.46612623 -0.1315726
2.4546847 -0.46470496 0.57677448
2.4323378 -0.46091411 -0.043212157
2.4597414 -0.46699643 0.67085898
0.92952925 -0.17899911 -0.25364268
2.4818466 -0.47882682 0.044119682
1.02749 -0.19842137 -0.24159741
2.4648459 -0.47688562 0.1315726
1.1891934 -0.23050964 -0.23545831
2.4820578 -0.48156407 0.22120127
1.4504344 -0.2819359 -0.23402599
2.4843225 -0.48380339 0.31076685
1.8393104 -0.35852531 -0.23008935
2.4719112 -0.48272994 0.39890796
2.4656558 -0.48240188 -0.21980678
2.47961 -0.48558137 0.49114239
2.4812279 -0.48679748 -0.13251466
2.4781508 -0.48709223 0.58307308
2.4447575 -0.48097181 -0.043491397
2.4677935 -0.48639864 0.6739648
0.93204582 -0.18624114 -0.25467795
2.4921687 -0.49888918 0.044364017
1.0413659 -0.20865253 -0.24519664
2.4849548 -0.49879849 0.13282867
1.1760067 -0.23648381 -0.23316859
2.4903548 -0.50123906 0.22224714
1.4368124 -0.28971219 -0.23214878
2.4925592 -0.50349361 0.31222928
1.8289797 -0.36978367 -0.22911438
2.4897776 -0.50428867 0.40234947
2.4758961 -0.50237679 -0.22102696
2.4819317 -0.50405252 0.49228725
2.4914691 -0.50689507 -0.13324735
2.4956942 -0.50866199 0.58802205
2.4589744 -0.50162494 -0.043805543
2.4775865 -0.50632274 0.67758828
0.9080224 -0.18804239 -0.2484663
2.5003736 -0.5187127 0.044573449
1.0398839 -0.21591748 -0.24519664
2.4990108 -0.519795 0.13377072
1.1897029 -0.24789183 -0.23622155
2.5023983 -0.52186662 0.22364163
1.4579586 -0.3045834 -0.23590319
2.4948125 -0.52210242 0.31296051
1.8380111 -0.38498506 -0.23057681
2.4939294 -0.52328074 0.40360096
2.4801276 -0.52128869 -0.22172421
2.4898794 -0.52379221 0.49457693
2.4956872 -0.52592373 -0.13366605
2.5111494 -0.53009778 0.59252107
2.4730208 -0.52249974 -0.044119682
2.5004513 -0.52920711 0.68483526
0.91802114 -0.19680665 -0.25157213
2.5123322 -0.53951472 0.044852685
1.0078675 -0.2166201 -0.23799822
2.5031309 -0.53891003 0.13418941
1.1841052 -0.2553637 -0.23545831
2.5220642 -0.54436815 0.22573337
1.4249043 -0.30807522 -0.23089729
2.5027475 -0.54202765 0.31442294
1.8236384 -0.39528418 -0.22911438
2.5133803 -0.54570836 0.4073554
2.4940443 -0.5419659 -0.22329301
2.5053456 -0.54533762 0.49839315
2.5036633 -0.54588687 -0.13429408
2.515099 -0.54884011 0.59432071
2.4966629 -0.54573011 -0.044608355
2.5155673 -0.55078244 0.69001162
0.92416894 -0.20488332 -0.25364268
2.5242195 -0.56006819 0.045131925
1.0329632 -0.22956994 -0.24429685
2.515002 -0.55940491 0.13502678
1.1746744 -0.26170993 -0.23393184
2.5376482 -0.56630152 0.22747649
1.4420532 -0.3220728 -0.23402599
2.510623 -0.56165081 0.31588537
1.8208345 -0.40800586 -0.22911438
2.5173178 -0.5645327 0.40860689
2.4921441 -0.55980098 -0.22346732
2.5225463 -0.56755513 0.50259089
2.5252194 -0.56861967 -0.13565481
2.5112062 -0.56638533 0.59432071
2.4966934 -0.56402797 -0.044678163
2.5381403 -0.57385683 0.69725859
0.91522038 -0.20944533 -0.25157213
2.5397394 -0.5821445 0.045480974
1.0351754 -0.23746715 -0.24519664
2.5227144 -0.57963258 0.13565481
1.1766452 -0.27078483 -0.23469506
2.5337346 -0.58356148 0.22747649
1.4436193 -0.33302036 -0.23465173
2.5298507 -0.58452713 0.31881022
1.8218832 -0.42128477 -0.22960186
2.5325596 -0.58655006 0.41173556
2.4862342 -0.57673538 -0.22329301
2.5339239 -0.58826411 0.50564384
2.5406423 -0.59075856 -0.13670154
2.5261703 -0.588323 0.59881973
2.5122712 -0.58554834 -0.045027211
2.5284286 -0.59024477 0.69570565
0.90245515 -0.21316504 -0.2484663
2.5433972 -0.60170233 0.04562059
1.0296998 -0.24379025 -0.24429685
2.5497005 -0.60460341 0.13732956
1.174726 -0.27899268 -0.23469506
2.5412295 -0.60400033 0.22852236
1.4105122 -0.33577126 -0.22964582
2.5469487 -0.60723859 0.32149133
1.8420684 -0.43952215 -0.23252673
2.5476158 -0.6088075 0.41486427
2.4898982 -0.5959335 -0.22399026
2.5354831 -0.60731167 0.50678873
2.5519929 -0.61220825 -0.1375389
2.5428443 -0.61095226 0.60376859
2.5275648 -0.60774779 -0.045376256
2.5449057 -0.61285716 0.70139962
0.92346859 -0.2249466 -0.25467795
2.5546765 -0.62323534 0.045899831
1.0279728 -0.2509729 -0.24429685
2.5725789 -0.62903017 0.13879497
1.168936 -0.28625304 -0.23393184
2.5601723 -0.62741745 0.2306141
1.4081337 -0.34561023 -0.22964582
2.5484307 -0.62642622 0.32222256
1.8312446 -0.45047465 -0.23155177
2.5644016 -0.63177609 0.41830578
2.4876115 -0.61377889 -0.22416456
2.5445232 -0.62829214 0.50946003
2.5592899 -0.63288617 -0.13816693
2.5631077 -0.63477981 0.60961735
2.5368471 -0.62874603 -0.04562059
2.5555646 -0.634332 0.70554072
0.91812813 -0.2304475 -0.25364268
2.5735357 -0.64690495 0.046318687
1.0148563 -0.25529093 -0.24159741
2.5719981 -0.64795047 0.13900432
1.1897522 -0.30016997 -0.23851125
2.5711839 -0.64917725 0.23200859
1.4286679 -0.36124325 -0.23340026
2.5574658 -0.64761335 0.32392874
1.8203579 -0.46129754 -0.23057681
2.5829051 -0.65549445 0.42206025
2.4948518 -0.63407516 -0.22521043
2.5667129 -0.65281582 0.51480269
2.5664222 -0.65369582 -0.13879497
2.5680552 -0.65506637 0.61186683
2.5478966 -0.6503979 -0.045899831
2.5660472 -0.65598547 0.70968187
0.94268262 -0.24361879 -0.26088959
2.584444 -0.66886389 0.046597924
1.0168225 -0.26334685 -0.24249724
2.5828784 -0.66990191 0.13984169
1.1686256 -0.30353311 -0.23469506
2.5935853 -0.67412841 0.23444894
1.4222878 -0.37021312 -0.23277451
2.5778539 -0.67196113 0.32709733
1.8170933 -0.4739947 -0.23057681
2.5916443 -0.67700523 0.42425033
2.502044 -0.65406573 -0.22625631
2.5867829 -0.67718232 0.51976377
2.5811157 -0.67666155 -0.13984169
2.5748467 -0.67549837 0.61456627
2.5510299 -0.67020202 -0.046039447
2.5819564 -0.67929047 0.7153759
0.92602301 -0.24622262 -0.2567485
2.5991559 -0.6915819 0.046946973
1.0206083 -0.27194437 -0.24384695
2.5898376 -0.69055474 0.14046971
1.1665324 -0.31148061 -0.23469506
2.5984399 -0.69479179 0.23532049
1.4311844 -0.38294932 -0.23465173
2.5981474 -0.69617146 0.33026594
1.8099054 -0.48563987 -0.23008935
2.5907917 -0.69565463 0.42487606
2.4935684 -0.6704824 -0.22590767
2.606637 -0.70186067 0.52472478
2.5995917 -0.7004503 -0.14109775
2.5870013 -0.69802654 0.61861545
2.5559416 -0.69060326 -0.046213973
2.5884619 -0.69987482 0.71848166
0.90569007 -0.24742898 -0.25157213
2.609695 -0.71393174 0.047226213
1.0187336 -0.27888507 -0.24384695
2.6042156 -0.71389854 0.14151645
1.1719024 -0.32169569 -0.23622155
2.6128623 -0.71774006 0.2370636
1.4170482 -0.38978797 -0.23277451
2.606621 -0.71798307 0.33197212
1.8065578 -0.49794811 -0.23008935
2.6049137 -0.71898043 0.42800474
2.4657822 -0.6815052 -0.22381593
2.6055834 -0.72063369 0.52548802
2.6138864 -0.7239123 -0.14214447
2.6008437 -0.72127783 0.62311447
2.5723772 -0.71386671 -0.046597924
2.5909584 -0.71999747 0.72055227
0.91510034 -0.25687844 -0.25467795
2.6142726 -0.7348389 0.047400735
0.99800229 -0.28071374 -0.23934792
2.6260827 -0.73964238 0.14298184
1.1809652 -0.33306664 -0.23851125
2.6212106 -0.73975176 0.2382838
1.4104906 -0.39859688 -0.23214878
2.6110952 -0.73886549 0.33319083
1.7992173 -0.50946635 -0.22960186
2.6207359 -0.74307585 0.43144631
2.4724643 -0.70196778 -0.22486182
2.6174858 -0.74363512 0.52892256
2.6087689 -0.74214298 -0.14214447
2.6219835 -0.74689156 0.62941307
2.5904078 -0.73838592 -0.047016785
2.6230218 -0.74867249 0.730905
0.90214711 -0.2600503 -0.25157213
2.6340554 -0.76028109 0.047854498
1.003507 -0.28983715 -0.24114752
2.6227736 -0.75851256 0.14308652
1.1748397 -0.34021097 -0.23774803
2.6389463 -0.76468742 0.24037553
1.4038792 -0.40733325 -0.23152302
2.6211238 -0.76150674 0.33514073
1.8032415 -0.52423137 -0.23057681
2.6363478 -0.76742697 0.43488789
2.4751544 -0.72144175 -0.22555906
2.6291931 -0.76683784 0.53235716
2.6131101 -0.76313674 -0.14266783
2.6260574 -0.76791281 0.63166255
2.6158974 -0.76543754 -0.047575258
2.6418321 -0.77402759 0.7376343
0.90030968 -0.26634207 -0.25157213
2.647857 -0.78433096 0.048203547
1.0126697 -0.30015868 -0.24384695
2.6384761 -0.78305513 0.14423791
1.149853 -0.34169367 -0.23316859
2.6564605 -0.78990638 0.24246727
1.4123609 -0.4205063 -0.23340026
2.6404741 -0.7871595 0.33830932
1.7995378 -0.53680748 -0.23057681
2.6479607 -0.79090124 0.43770367
2.4662399 -0.73756212 -0.22521043
2.6388223 -0.78967696 0.53541011
2.6402438 -0.79110658 -0.14444725
2.6392977 -0.7918272 0.63616157
2.6219814 -0.78713095 -0.04778469
2.6493146 -0.79634476 0.74125779
0.86885041 -0.26364568 -0.24328992
2.67293 -0.81209826 0.048762023
0.99936253 -0.30382007 -0.24114752
2.6539626 -0.80785364 0.1453893
1.1587074 -0.353147 -0.23545831
2.6546926 -0.80959475 0.24281588
1.4018337 -0.42804852 -0.23214878
2.6614914 -0.81369948 0.34172165
1.8033394 -0.55168039 -0.23155177
2.6537073 -0.81283927 0.43958092
2.4438872 -0.74950397 -0.22364163
2.6595211 -0.81614345 0.54075271
2.6690214 -0.82007843 -0.14633135
2.6560569 -0.81710976 0.64156044
2.6298006 -0.80953473 -0.048029024
2.6621523 -0.82051092 0.74643415
0.87436736 -0.27200028 -0.24536048
2.6767416 -0.83371222 0.04893655
1.0158218 -0.31658778 -0.24564654
2.6711373 -0.83350116 0.14664535
1.1412222 -0.35654399 -0.23240536
2.6775007 -0.83702534 0.24543057
1.4025816 -0.43900478 -0.23277451
2.6765828 -0.83879012 0.34440279
1.7956557 -0.56306857 -0.2310643
2.6743531 -0.83962959 0.44396105
2.4423969 -0.7677421 -0.22399026
2.6649957 -0.83822477 0.54304242
2.6803763 -0.84409088 -0.14727339
2.67259 -0.84266436 0.64695925
2.6488764 -0.83569592 -0.048482787
2.6729383 -0.84431309 0.75109291
0.91294038 -0.29100534 -0.2567485
2.6918116 -0.85906661 0.049320504
0.9987359 -0.31892934 -0.24204734
2.6899846 -0.86003572 0.1480061
1.1611429 -0.37168479 -0.23698479
2.694361 -0.86299026 0.24752231
1.3994826 -0.44878584 -0.23277451
2.6668816 -0.85624194 0.34391531
1.8030208 -0.57923377 -0.23252673
2.7003949 -0.86856192 0.44927984
2.4464598 -0.78782803 -0.22486182
2.6871083 -0.86584109 0.54876673
2.6896245 -0.86768836 -0.14811078
2.688895 -0.86848944 0.65235806
2.6696172 -0.86277735 -0.048971456
2.6908734 -0.87068462 0.75782222
0.88150311 -0.28777909 -0.2484663
2.7028551 -0.88342917 0.049634643
0.98537177 -0.32225949 -0.23934792
2.6896091 -0.88065869 0.14832011
1.1622509 -0.38100505 -0.23774803
2.7090955 -0.88860989 0.24943975
1.4000689 -0.45977774 -0.23340026
2.6928971 -0.88537949 0.34805888
1.7800764 -0.58560359 -0.23008935
2.7167802 -0.89480847 0.45303425
2.4484687 -0.80738389 -0.22555906
2.7052352 -0.89257628 0.55372775
2.6948802 -0.89020294 -0.1487388
2.6975677 -0.8921352 0.65595728
2.6825132 -0.88767576 -0.049320504
2.708569 -0.89734715 0.76455152
0.90512383 -0.30249891 -0.25571322
2.719378 -0.90989113 0.0500535
0.99418563 -0.3328428 -0.24204734
2.7023325 -0.90576142 0.14936683
1.1446725 -0.38411313 -0.23469506
2.7292683 -0.91637957 0.25188008
1.4005698 -0.47079962 -0.23402599
2.7129898 -0.91302204 0.35147122
1.7834699 -0.60055047 -0.2310643
2.7179544 -0.91627723 0.45428574
2.446692 -0.82530475 -0.22590767
2.7193985 -0.91835004 0.55792552
2.7226567 -0.92050934 -0.15062289
2.7098925 -0.91672087 0.6604563
2.6970847 -0.91343743 -0.049704451
2.7223635 -0.92305809 0.77024549
0.89933419 -0.30756018 -0.25467795
2.7452857 -0.93938607 0.050646886
1.0065862 -0.34482777 -0.24564654
2.7187772 -0.93190581 0.15062289
1.1383177 -0.39062127 -0.23393184
2.7341104 -0.93929505 0.25292596
1.382388 -0.47518486 -0.23152302
2.7311141 -0.93986487 0.3546398
1.7679728 -0.60910702 -0.22960186
2.7247276 -0.93926299 0.45647582
2.4333372 -0.83976585 -0.22521043
2.7426112 -0.94757038 0.56403142
2.7314291 -0.94424075 -0.15146028
2.7218423 -0.94199038 0.66495532
2.6982002 -0.93486297 -0.049844075
2.7233183 -0.94409829 0.7723161
0.89357257 -0.31239951 -0.25364268
2.7462103 -0.96117109 0.050786503
1.0005374 -0.35038316 -0.24474674
2.7348225 -0.95879298 0.15187897
1.1392677 -0.39985901 -0.23469506
2.7483313 -0.96514529 0.25484338
1.3678557 -0.48089308 -0.22964582
2.7525737 -0.96879417 0.35829589
1.7750201 -0.62508327 -0.2310643
2.7479117 -0.96877074 0.46148172
2.4350803 -0.85896057 -0.22590767
2.7416513 -0.96817786 0.56517625
2.7473674 -0.97127515 -0.15271634
2.7410882 -0.96959352 0.67125398
2.7238193 -0.96455497 -0.050437454
2.7403316 -0.971479 0.7790454
0.90592289 -0.3238323 -0.25778377
2.7527845 -0.98455554 0.051030833
0.98705876 -0.35341817 -0.24204734
2.7601967 -0.98883706 0.15365838
1.1291275 -0.40495333 -0.23316859
2.7621536 -0.99171454 0.25676081
1.3794231 -0.49553528 -0.23214878
2.7533875 -0.99019492 0.35927087
1.7780839 -0.64014959 -0.23203924
2.765414 -0.99615556 0.46554902
2.4065335 -0.86782897 -0.22381593
2.7606781 -0.99662751 0.57051897
2.7519631 -0.99402434 -0.15334436
2.7672393 -1.0006342 0.67935222
2.7377021 -0.99103439 -0.050821409
2.764534 -1.0012932 0.78784519
0.88192183 -0.32203957 -0.25157213
2.7721381 -1.0133613 0.051519506
1.002932 -0.36682248 -0.24654636
2.7682302 -1.0135761 0.15449576
1.1483929 -0.42093405 -0.23774803
2.770304 -1.0159808 0.25815532
1.3833475 -0.50787657 -0.23340026
2.7650399 -1.016241 0.36170825
1.7772976 -0.65391821 -0.23252673
2.7806375 -1.0236264 0.46930346
2.4415452 -0.89976537 -0.22765081
2.7702303 -1.0219918 0.57395351
2.7693145 -1.0222032 -0.15470509
2.7748096 -1.0253323 0.68295145
2.7550981 -1.0191417 -0.051275171
2.7828407 -1.0299562 0.79509211
0.91579211 -0.34185421 -0.26192489
2.7930956 -1.0431845 0.052043077
0.9893294 -0.3698951 -0.24384695
2.7796118 -1.0403602 0.15554248
1.1233635 -0.42067891 -0.23316859
2.8021407 -1.0504655 0.26181585
1.3870755 -0.52053869 -0.23465173
2.780179 -1.0438931 0.36463311
1.7466748 -0.65653187 -0.22911438
2.7898808 -1.0497588 0.47211927
2.4874136 -0.93644398 -0.23253153
2.785073 -1.0496148 0.57853287
2.7899594 -1.0525687 -0.15627518
2.7858157 -1.051561 0.68745047
2.7703636 -1.046833 -0.051694028
2.8061168 -1.0614626 0.80389202
0.86645049 -0.33034551 -0.2484663
2.8117149 -1.0731272 0.052531745
1.001287 -0.38235435 -0.24744615
2.7928026 -1.0675848 0.15669388
1.1313261 -0.43291664 -0.23545831
2.8096242 -1.0757015 0.26321036
1.3907859 -0.5330373 -0.23590319
2.7967317 -1.0730046 0.3678017
1.7679942 -0.67866939 -0.23252673
2.8009233 -1.0762957 0.47524795
2.4399025 -0.93805683 -0.22869666
2.808826 -1.0810205 0.58502042
2.7974529 -1.0777647 -0.15711255
2.8002264 -1.0793946 0.69284928
2.7779126 -1.0719073 -0.051973268
2.8040445 -1.0831153 0.8054449
0.87492472 -0.34059125 -0.25157213
2.8117983 -1.0951438 0.052671362
0.99859333 -0.38933524 -0.24744615
2.8152425 -1.0981832 0.15836863
1.1356683 -0.44346371 -0.23698479
2.8076131 -1.0974661 0.2637333
1.3613696 -0.53241885 -0.23152302
2.8207872 -1.1043187 0.37194526
1.7632132 -0.69099569 -0.23252673
2.8284748 -1.1090367 0.48119247
2.4258757 -0.95215577 -0.22799942
2.817656 -1.1070647 0.58845496
2.8328044 -1.1135873 -0.15952002
2.8143833 -1.1074803 0.69824809
2.794549 -1.1008021 -0.052427031
2.8163772 -1.1099683 0.81113893
0.87976784 -0.34939086 -0.25364268
2.8263834 -1.1236118 0.053090218
0.99592006 -0.39612338 -0.24744615
2.8409076 -1.1311088 0.16025271
1.1179547 -0.44556639 -0.23393184
2.8389418 -1.1320487 0.2673938
1.3722966 -0.54776847 -0.23402599
2.8332863 -1.1320865 0.3746264
1.7510959 -0.7000339 -0.23155177
2.840837 -1.1368289 0.48463401
2.4117711 -0.96610475 -0.22730216
2.835568 -1.1364433 0.59379762
2.8323758 -1.1363114 -0.15993871
2.8355172 -1.1387209 0.70544648
2.8166797 -1.131727 -0.052985508
2.8426137 -1.1432997 0.82097405
0.88446891 -0.35842648 -0.25571322
2.857384 -1.1591016 0.053823221
0.97146213 -0.39427236 -0.24204734
2.8458946 -1.1561766 0.16098543
1.1148168 -0.45336023 -0.23393184
2.8586519 -1.1631036 0.27000847
1.372098 -0.55882573 -0.23465173
2.8455341 -1.1600825 0.37730753
1.7424899 -0.71074224 -0.2310643
2.8547771 -1.1655942 0.48838848
2.4234109 -0.99045616 -0.22904527
2.862092 -1.1703296 0.60104835
2.8484032 -1.165893 -0.16129944
2.8491373 -1.1673546 0.71084529
2.8346138 -1.1619819 -0.053474173
2.8595839 -1.173384 0.82822096
0.86766261 -0.35868815 -0.25157213
2.8732431 -1.1889614 0.054276984
0.99029225 -0.40998998 -0.24744615
2.8562045 -1.1836628 0.16203214
1.104371 -0.45812303 -0.23240536
2.8780656 -1.1944883 0.27262318
1.3681633 -0.56839103 -0.23465173
2.8648601 -1.191353 0.38096359
1.7374856 -0.72288972 -0.2310643
2.8702765 -1.1953685 0.49245578
2.4092562 -1.0038633 -0.22834805
2.8755956 -1.199351 0.60562783
2.8604681 -1.194214 -0.16245082
2.8663001 -1.1972362 0.71714395
2.848572 -1.1909993 -0.05389303
2.881618 -1.2059979 0.83702081
0.87225777 -0.36773869 -0.25364268
2.9019337 -1.2240344 0.054975081
0.9766342 -0.41234559 -0.24474674
2.8793588 -1.2162888 0.16381156
1.1048435 -0.4671587 -0.23316859
2.8843346 -1.2207642 0.27401763
1.3788147 -0.58385259 -0.23715468
2.8786163 -1.2201217 0.38388845
1.7579806 -0.74585634 -0.23447664
2.8838935 -1.2241402 0.49621019
2.4168594 -1.0268916 -0.22974254
2.8924456 -1.230154 0.61097044
2.8890295 -1.2292968 -0.16454425
2.888351 -1.230199 0.7247923
2.8585825 -1.2186993 -0.054242078
2.8964429 -1.2354375 0.84375012
0.88038433 -0.37824294 -0.2567485
2.9025028 -1.2482139 0.055149604
0.99170566 -0.42668557 -0.24924576
2.9038162 -1.2505808 0.16569565
1.1015551 -0.47486049 -0.23316859
2.9034009 -1.2522045 0.27663234
1.3493147 -0.5825032 -0.23277451
2.9046509 -1.2551495 0.3885195
1.7309978 -0.74835229 -0.23155177
2.9042838 -1.2567958 0.50121611
2.3876925 -1.0342364 -0.22765081
2.8984163 -1.2560589 0.61402339
2.9118676 -1.2643036 0.73289055
2.8869035 -1.2540632 -0.054940179
0.874183 -0.38282999 -0.25571322
2.9193585 -1.2796861 0.055638272
0.97085607 -0.42577186 -0.24474674
2.9242759 -1.2836672 0.16737041
1.1054028 -0.48569819 -0.23469506
2.9219472 -1.2844703 0.27924702
1.3488314 -0.59350008 -0.23340026
2.917618 -1.2849984 0.39144436
1.7366304 -0.76522118 -0.2330142
2.9388163 -1.2961724 0.50872493
2.9111271 -1.2857813 0.61860281
2.9314833 -1.2972184 0.740089
2.9055059 -1.2863297 -0.05546375
0.87148911 -0.38892359 -0.25571322
0.96430176 -0.43094912 -0.24384695
1.0912341 -0.48858979 -0.23240536
1.3698901 -0.61421669 -0.23778042
1.7240021 -0.77407402 -0.23203924
0.88633883 -0.4029941 -0.26088959
0.96126974 -0.43767065 -0.24384695
1.0949414 -0.49945518 -0.23393184
1.3511943 -0.6171993 -0.23527746
1.6968937 -0.77618217 -0.22911438
0.82740831 -0.3831929 -0.24432519
3.7464314 -1.7366517 0.072078437
0.96526217 -0.44765028 -0.24564654
3.7246535 -1.7289265 0.21520546
1.084306 -0.50377822 -0.23240536
3.7345433 -1.7358947 0.36030185
1.3611807 -0.63328338 -0.23778042
1.7274215 -0.80477583 -0.23398916
3.6604042 -1.7107649 -0.2117513
3.6983845 -1.7308758 -0.071275629
0.8491748 -0.40049684 -0.25157213
3.7107072 -1.7516668 0.071624674
0.95858932 -0.45271379 -0.24474674
3.7016587 -1.749766 0.21457745
1.0843117 -0.51301497 -0.23316859
3.7025237 -1.7525475 0.3583844
1.342445 -0.63600481 -0.23527746
3.7020929 -1.7555079 0.50307667
1.728935 -0.82021928 -0.23496412
3.6991186 -1.7564707 0.64857739
3.7038715 -1.7611047 0.79719996
3.6537824 -1.7388523 -0.21206531
3.6770277 -1.7514895 0.94029546
3.6753795 -1.7514915 -0.071066193
0.84635812 -0.4064154 -0.25157213
3.6875741 -1.7723322 0.071415246
0.94135535 -0.45263907 -0.24114752
3.6821539 -1.7721009 0.21415874
1.0807039 -0.5205723 -0.23316859
3.6848145 -1.7757583 0.35786149
1.3308554 -0.64192837 -0.23402599
3.670083 -1.7718172 0.5003956
1.7124417 -0.82708931 -0.23350169
3.6743164 -1.7762338 0.64638728
3.6685147 -1.7757996 0.79223901
3.6271749 -1.7573513 -0.21122794
3.6685276 -1.7781774 0.94119519
3.6540666 -1.7727435 -0.070891678
0.85738498 -0.41910121 -0.25571322
3.6610539 -1.7903634 0.071136013
0.9556756 -0.46776706 -0.24564654
3.653863 -1.7892184 0.21321672
1.1123935 -0.54519671 -0.24080098
3.6580174 -1.7944198 0.35646698
1.3441885 -0.65967512 -0.23715468
3.6419015 -1.7888807 0.49820194
1.7066258 -0.83902419 -0.23350169
3.6568234 -1.7985873 0.64544868
3.6454613 -1.7961608 0.7899493
3.6079633 -1.7784678 -0.21080926
3.6298099 -1.7908119 0.93444669
3.6272573 -1.791127 -0.070612431
3.640723 -1.7985667 1.0880753
0.85797197 -0.42664778 -0.2567485
3.6395144 -1.8114234 0.070961483
0.94549179 -0.47078684 -0.24384695
3.6198323 -1.8039927 0.21196064
1.0839647 -0.54068112 -0.23545831
3.6385877 -1.815719 0.35576975
1.3324815 -0.66551262 -0.23590319
3.6186705 -1.8089364 0.49673948
1.6937735 -0.84706962 -0.23252673
3.626514 -1.8152312 0.64232004
3.6278853 -1.8182938 0.78880447
3.5901034 -1.8009257 -0.21049525
3.6001194 -1.8067366 0.92994767
3.5953252 -1.8059021 -0.070228487
3.6177225 -1.8187337 1.0849695
0.8653149 -0.43786055 -0.25985435
3.6163957 -1.8307357 0.070752062
0.94218206 -0.4773761 -0.24384695
3.6092503 -1.8294932 0.21206531
1.0802593 -0.54804683 -0.23545831
3.6098342 -1.8329581 0.35420093
1.3349652 -0.67814565 -0.23715468
3.5974259 -1.8290274 0.49552077
1.6807418 -0.85527253 -0.23155177
3.5911889 -1.8282233 0.63825274
3.5976136 -1.8346575 0.78498828
3.5848782 -1.8289516 -0.21091393
3.5787404 -1.8273948 0.92769814
3.5612624 -1.8200377 -0.069809623
3.5846181 -1.8327631 1.0787579
0.84170133 -0.43313301 -0.25364268
3.5804162 -1.8440355 0.070298299
0.9493047 -0.48913372 -0.24654636
3.5804143 -1.8464072 0.21112327
1.079896 -0.55737591 -0.23622155
3.57072 -1.8437753 0.35158628
1.3231789 -0.6838212 -0.23590319
3.5739906 -1.8486254 0.49405837
1.6748812 -0.86669308 -0.23155177
3.5730758 -1.8505244 0.63731414
3.5676138 -1.8500654 0.7811721
3.57025 -1.8530141 -0.21080926
3.5641661 -1.851436 0.92724824
3.545243 -1.842392 -0.069739819
3.5563107 -1.8497206 1.0740991
0.83865702 -0.43899855 -0.25364268
3.5532844 -1.8615623 0.070019051
0.94931883 -0.49755839 -0.24744615
3.5603616 -1.8676467 0.21070457
1.0725021 -0.5630762 -0.23545831
3.5489411 -1.8640258 0.35071471
1.3113788 -0.68936539 -0.23465173
3.5364025 -1.8605913 0.490646
1.6898693 -0.88945991 -0.23447664
3.5425925 -1.8662169 0.63418543
3.5372458 -1.8657672 0.77735591
3.5483952 -1.8732316 -0.21028589
3.545985 -1.8735422 0.92589855
3.5199187 -1.8605558 -0.069495484
3.5364802 -1.8708895 1.0720285
0.81851941 -0.43576434 -0.2484663
3.531378 -1.8816216 0.069844536
0.93206477 -0.49684033 -0.24384695
3.5225661 -1.8792952 0.20923917
1.0720086 -0.57239926 -0.23622155
3.5305693 -1.8859402 0.35019177
1.3169863 -0.70409167 -0.23652895
3.5145757 -1.8805519 0.48942733
1.6626171 -0.88999355 -0.23155177
3.5225127 -1.8871719 0.63293391
3.5102937 -1.8829917 0.7743029
3.5141146 -1.8866215 -0.20902982
3.5070691 -1.8844163 0.91914994
3.4980371 -1.88035 -0.069320954
3.5148263 -1.8909565 1.0694402
0.84263915 -0.45618364 -0.2567485
3.5005734 -1.8967026 0.069495484
0.93199992 -0.50519252 -0.24474674
3.4882936 -1.8924127 0.20798311
1.0438316 -0.5667544 -0.23087889
3.5068123 -1.9048363 0.34914589
1.298155 -0.7057209 -0.23402599
3.4874117 -1.8974524 0.48747739
1.649389 -0.89778292 -0.23057681
3.483232 -1.8975427 0.62824088
3.486721 -1.9018116 0.77201319
3.4868336 -1.9034524 -0.20819245
3.4784372 -1.9004452 0.91510093
3.4690325 -1.8960932 -0.069006816
3.4896755 -1.9089588 1.0658169
0.83266431 -0.45832893 -0.25467795
3.4837439 -1.9191651 0.069425672
0.94551742 -0.52109271 -0.24924576
3.4680018 -1.9128606 0.20756441
1.0501621 -0.57972056 -0.23316859
3.4777319 -1.9206032 0.3475771
1.3104851 -0.7243222 -0.23715468
3.4601839 -1.9140657 0.48552752
1.6465551 -0.9111982 -0.2310643
3.4578035 -1.9151144 0.62605083
3.4647746 -1.9213465 0.77010518
3.4682212 -1.9248408 -0.20787844
3.4565668 -1.9199514 0.91285133
3.4364831 -1.9095808 -0.068622865
3.4661341 -1.9276409 1.0627111
0.82944429 -0.46413085 -0.25467795
3.4720056 -1.9444166 0.069460578
0.93505603 -0.52387094 -0.24744615
3.4754684 -1.9487469 0.20882049
1.0529377 -0.59088105 -0.23469506
3.4711885 -1.9487367 0.34827435
1.2985079 -0.72958297 -0.23590319
3.4813428 -1.9576352 0.49040228
1.6539946 -0.93045717 -0.2330142
3.4684477 -1.9527751 0.630431
3.4717999 -1.957057 0.77468461
3.4686151 -1.9568576 -0.20871581
3.4702296 -1.9593658 0.92004979
3.4526677 -1.9502445 -0.069216244
3.4660459 -1.9593974 1.0668522
0.83290076 -0.47373047 -0.2567485
3.4427054 -1.9597046 0.069146432
0.90766823 -0.51688534 -0.24114752
3.4513674 -1.9670289 0.20819245
1.0590191 -0.6040538 -0.23698479
3.4436555 -1.9650228 0.34687987
1.2933829 -0.73863035 -0.23590319
3.4279518 -1.9592357 0.48479629
1.6543516 -0.94592297 -0.23398916
3.4255838 -1.9602628 0.62511224
2.2579784 -1.2931565 -0.22765081
3.4137621 -1.9558712 0.76476252
3.4115534 -1.956188 -0.20609902
3.4344938 -1.9709352 0.91420108
3.3886757 -1.9454283 -0.068204008
3.4171066 -1.9633363 1.0559818
0.80281281 -0.46406481 -0.2484663
3.4012463 -1.9676698 0.068587959
0.92765051 -0.53687531 -0.24744615
3.3874309 -1.9620456 0.20515697
1.0411881 -0.60355562 -0.23393184
3.404 -1.9740236 0.34426519
1.2779438 -0.74169242 -0.23402599
3.3832924 -1.9651725 0.480409
1.6614385 -0.96542817 -0.23593907
3.3930314 -1.9732059 0.62167066
2.2488956 -1.3088884 -0.22765081
3.4051144 -1.9826196 0.76590741
3.3822825 -1.9709072 -0.20515697
3.3667819 -1.9634491 0.89980417
3.3681028 -1.9650072 -0.068064384
3.3749554 -1.9705843 1.0471818
0.84619409 -0.49705485 -0.26296017
3.3805306 -1.987313 0.068448335
0.90372252 -0.53148377 -0.24204734
3.3684871 -1.982607 0.20484295
1.0403322 -0.61280257 -0.23469506
3.3849862 -1.9947052 0.34374225
1.2829438 -0.75661677 -0.23590319
3.3712003 -1.9897534 0.48065275
1.6478207 -0.97296625 -0.23496412
3.3706698 -1.9918208 0.62010628
2.2296436 -1.3180823 -0.22660492
3.386121 -2.0033441 0.76476252
3.3684409 -1.9944717 -0.20515697
3.3583691 -1.9892999 0.90115386
3.350862 -1.9864334 -0.067994572
3.3760691 -2.0029693 1.0518407
0.79625523 -0.47522861 -0.2484663
3.3772268 -2.0164285 0.068657771
0.90668148 -0.54177833 -0.24384695
3.3617713 -2.0095887 0.20526163
1.036137 -0.61986953 -0.23469506
3.3624308 -2.0131705 0.34287068
1.2913213 -0.77345216 -0.23840615
3.3609838 -2.0146954 0.4811402
1.6409879 -0.98444641 -0.23496412
3.3604214 -2.0167511 0.62073201
2.2613792 -1.3582367 -0.23078841
3.3703697 -2.0259233 0.76438087
3.3667684 -2.0245583 -0.20588967
3.3744543 -2.0307844 0.90925217
3.3489034 -2.0170002 -0.068238907
3.3706307 -2.0308881 1.0544289
0.80952281 -0.49065077 -0.25364268
3.3733256 -2.0461788 0.068867192
0.9029727 -0.54793727 -0.24384695
3.3664382 -2.0444131 0.20641303
1.0351398 -0.62912738 -0.23545831
3.3724837 -2.0505021 0.34531105
1.2521397 -0.76191169 -0.23214878
3.3722687 -2.0535975 0.48479629
1.6545924 -1.0079867 -0.23788899
3.3614399 -2.0494168 0.62354785
2.2350719 -1.3632231 -0.22904527
3.3766108 -2.0610919 0.7689603
3.3542566 -2.0490544 -0.20599434
3.3555646 -2.0506577 0.90790248
3.3368027 -2.040792 -0.068273813
3.3547225 -2.0533612 1.0539112
0.79949754 -0.49223897 -0.25157213
3.354212 -2.0659466 0.068762481
0.89248979 -0.55013764 -0.24204734
3.3541443 -2.0683284 0.2065177
1.0308335 -0.63615876 -0.23545831
3.3614769 -2.0760903 0.34565967
1.2536466 -0.77457023 -0.23340026
3.3447051 -2.068152 0.48284638
1.6475151 -1.0195132 -0.23788899
3.3558104 -2.0774486 0.62511224
2.2221131 -1.3766948 -0.22869666
3.345454 -2.0742693 0.76514411
3.3504155 -2.0781553 -0.20662238
3.364346 -2.0884225 0.91420108
3.3564463 -2.0851421 -0.06897191
0.82889098 -0.51814979 -0.26192489
3.3837845 -2.1168876 0.069670007
0.8953321 -0.5603351 -0.24384695
3.3836324 -2.1192582 0.20923917
1.036348 -0.64959586 -0.23774803
3.3877792 -2.1243262 0.34984317
1.2582477 -0.78960335 -0.23527746
1.6472608 -1.034928 -0.23886393
2.2090752 -1.3900521 -0.22834805
0.81546783 -0.51771128 -0.25881904
0.89139849 -0.56657195 -0.24384695
1.0251631 -0.65259784 -0.23622155
1.2626996 -0.80473822 -0.23715468
1.626608 -1.0378608 -0.23691402
2.2060323 -1.4097317 -0.22904527
0.79884434 -0.51501739 -0.25467795
0.88087207 -0.5685541 -0.24204734
1.0205821 -0.65973896 -0.23622155
1.2437838 -0.80494773 -0.23465173
1.602663 -1.0383971 -0.23447664
2.1863565 -1.4182093 -0.22799942
0.78553152 -0.51423323 -0.25157213
0.88340098 -0.57896256 -0.24384695
1.0193508 -0.66882461 -0.23698479
1.238276 -0.8133952 -0.23465173
1.605325 -1.0561064 -0.23593907
2.1797302 -1.4356302 -0.22834805
0.78844935 -0.52384442 -0.25364268
0.8729493 -0.5806452 -0.24204734
1.0048531 -0.6693939 -0.23469506
1.2227066 -0.81544393 -0.23277451
1.5914954 -1.0625998 -0.23496412
2.209404 -1.4773922 -0.23253153
0.78477305 -0.52933609 -0.25364268
0.87856442 -0.59326875 -0.24474674
1.0131657 -0.68519133 -0.23774803
1.2169839 -0.82396007 -0.23277451
1.580752 -1.0714571 -0.23447664
2.1825516 -1.4815905 -0.23078841
0.78743452 -0.53916758 -0.25571322
0.88726014 -0.60820228 -0.24834597
1.0051205 -0.69002551 -0.23698479
1.2307376 -0.84586251 -0.23652895
1.5797749 -1.0869673 -0.23545158
2.2016857 -1.5171404 -0.233926
0.77730584 -0.5402416 -0.25364268
0.86059779 -0.59879947 -0.24204734
0.99383575 -0.692536 -0.23545831
1.218322 -0.84991324 -0.23527746
1.568893 -1.0956966 -0.23496412
2.1812449 -1.5256225 -0.23288015
0.77351528 -0.54565507 -0.25364268
0.87549812 -0.61828274 -0.24744615
0.98577082 -0.69719011 -0.23469506
1.2123588 -0.8583979 -0.23527746
1.5644444 -1.1089185 -0.23545158
2.1708095 -1.5404344 -0.23288015
0.75397927 -0.53979605 -0.2484663
0.84898543 -0.60848647 -0.24114752
1.0033342 -0.71990716 -0.24003772
1.2096965 -0.86893511 -0.23590319
1.5566646 -1.1198133 -0.23545158
2.156769 -1.553223 -0.23253153
0.77842337 -0.56535012 -0.25778377
0.85428101 -0.62112719 -0.24384695
0.98876137 -0.71996033 -0.23774803
1.1972158 -0.87270468 -0.23465173
1.5714556 -1.1467656 -0.23886393
2.1104839 -1.542379 -0.22869666
0.77134722 -0.56847841 -0.2567485
0.85933262 -0.63401783 -0.24654636
0.97107905 -0.71751213 -0.23469506
1.2196802 -0.90218645 -0.24028336
1.5187426 -1.124631 -0.23203924
2.1060662 -1.5618224 -0.22939391
0.75188881 -0.56228006 -0.25157213
0.84552544 -0.63299429 -0.24384695
0.96290469 -0.7219187 -0.23393184
1.1975532 -0.89882153 -0.23715468
1.5330727 -1.1519005 -0.23545158
2.1017551 -1.5809124 -0.23009115
0.72947729 -0.55350274 -0.24536048
0.84108579 -0.63888162 -0.24384695
0.96421951 -0.73320955 -0.23545831
1.1725461 -0.89259416 -0.23340026
1.528151 -1.1649823 -0.23593907
0.74406481 -0.57259333 -0.25157213
0.82745492 -0.63745618 -0.24114752
0.96529508 -0.74471998 -0.23698479
1.1787932 -0.91041785 -0.23590319
1.5264677 -1.1802139 -0.23691402
0.76136744 -0.59441757 -0.25881904
0.83833873 -0.65521765 -0.24564654
0.9600724 -0.75144094 -0.23698479
1.1817381 -0.92593509 -0.23778042
1.5213149 -1.193292 -0.2374015
0.76325679 -0.60451615 -0.26088959
0.83069009 -0.65863287 -0.24474674
0.95172781 -0.75568336 -0.23622155
1.1783378 -0.93662083 -0.23840615
1.5098405 -1.2014117 -0.23691402
0.72287422 -0.5807904 -0.2484663
0.82910872 -0.66685879 -0.24564654
0.92808151 -0.74753112 -0.23164214
1.1656194 -0.93986452 -0.23715468
1.5137736 -1.2218975 -0.23886393
0.71880192 -0.58582282 -0.2484663
0.8214131 -0.67016697 -0.24474674
0.95324677 -0.77883524 -0.2392745
1.1437389 -0.93547291 -0.23402599
1.4990627 -1.2274054 -0.23788899
0.74447352 -0.61544442 -0.25881904
0.81971705 -0.67836994 -0.24564654
0.94476306 -0.7829656 -0.23851125
1.1493425 -0.95352501 -0.23652895
1.4751862 -1.2251581 -0.23545158
0.72535563 -0.60821432 -0.25364268
0.81197608 -0.68157029 -0.24474674
0.92424548 -0.77690953 -0.23469506
1.1487036 -0.96661305 -0.23778042
1.4514148 -1.2226378 -0.2330142
0.70637572 -0.60074776 -0.2484663
0.80719799 -0.68722242 -0.24474674
0.92790121 -0.79082352 -0.23698479
1.145103 -0.97697377 -0.23840615
1.473029 -1.2585303 -0.23788899
0.71690083 -0.61815739 -0.25364268
0.80545199 -0.69524741 -0.24564654
0.91344589 -0.7895788 -0.23469506
1.1382545 -0.98494422 -0.23840615
1.4614275 -1.2659281 -0.2374015
0.68639195 -0.60025609 -0.24432519
0.79471362 -0.69571924 -0.24384695
0.9197216 -0.80629027 -0.23774803
1.119473 -0.98244303 -0.23590319
1.4704502 -1.291822 -0.24032637
0.7082001 -0.62810665 -0.25364268
0.80149531 -0.71160084 -0.24744615
0.91407031 -0.81269139 -0.23774803
1.1155382 -0.99286085 -0.23652895
1.4525028 -1.2941328 -0.23886393
0.71528852 -0.64337075 -0.25778377
0.78492242 -0.70674735 -0.24384695
0.9289335 -0.83729655 -0.24309067
1.1116874 -1.0030776 -0.23715468
1.4345953 -1.2962564 -0.2374015
0.70518267 -0.64301807 -0.25571322
0.78297216 -0.71470124 -0.24474674
0.89988023 -0.822568 -0.23698479
1.1104869 -1.0161484 -0.23840615
1.4140285 -1.2952645 -0.23545158
0.69500291 -0.64267904 -0.25364268
0.78654397 -0.72809279 -0.24744615
0.89411569 -0.82883018 -0.23698479
1.1033658 -1.0238762 -0.23840615
1.4078604 -1.3078067 -0.23593907
0.68486255 -0.64222962 -0.25157213
0.77575862 -0.72823101 -0.24564654
0.89402932 -0.84043074 -0.23851125
1.0933139 -1.0288466 -0.23778042
1.4013553 -1.3205703 -0.23642655
0.68584806 -0.65243989 -0.25364268
0.76488286 -0.72838801 -0.24384695
0.88245624 -0.84123325 -0.23698479
1.0859237 -1.0366439 -0.23778042
1.4093238 -1.3467791 -0.23935141
0.6840573 -0.65989459 -0.25467795
0.75977916 -0.73371023 -0.24384695
0.88488168 -0.85571498 -0.2392745
1.0928531 -1.0579393 -0.2409091
1.3856319 -1.3427706 -0.23691402
0.67667174 -0.6619522 -0.25364268
0.74906915 -0.73354262 -0.24204734
0.88184047 -0.86446702 -0.24003772
1.0743474 -1.0542848 -0.23840615
1.3705603 -1.3468459 -0.23593907
0.68586773 -0.68014568 -0.25881904
0.75235677 -0.74686182 -0.24474674
0.8590759 -0.85399312 -0.23545831
1.0697614 -1.0645462 -0.2390319
1.369799 -1.3645495 -0.2374015
0.66203189 -0.66573972 -0.25157213
0.76360512 -0.76868641 -0.25014558
0.85047722 -0.85703361 -0.23469506
1.0458022 -1.0549686 -0.23527746
1.3686187 -1.3825436 -0.23886393
0.66289639 -0.6757468 -0.25364268
0.73925996 -0.7543804 -0.24384695
0.86369711 -0.88259453 -0.24003772
1.0466969 -1.0707191 -0.23715468
1.3591763 -1.3918275 -0.23886393
0.6796537 -0.70257407 -0.26192489
0.74210048 -0.76793092 -0.24654636
0.85751444 -0.88860279 -0.24003772
1.0446802 -1.083689 -0.23840615
1.3494266 -1.4012823 -0.23886393
0.66673148 -0.69891471 -0.25881904
0.73672134 -0.77309304 -0.24654636
0.85941046 -0.90310085 -0.24232745
1.0370892 -1.0909559 -0.23840615
1.3341432 -1.4049112 -0.23788899
1.8675992 -1.9687271 -0.23741224
0.64330459 -0.68385291 -0.25157213
0.73931319 -0.78673804 -0.24924576
0.82368219 -0.87743926 -0.23393184
1.032342 -1.1008717 -0.2390319
1.3080204 -1.3968031 -0.23496412
0.65703177 -0.70804095 -0.25881904
0.73394096 -0.7917521 -0.24924576
0.83887511 -0.90621984 -0.24003772
1.0165844 -1.0993497 -0.23715468
1.3011761 -1.4085906 -0.23545158
0.64685613 -0.70690972 -0.2567485
0.71524769 -0.78247303 -0.24474674
0.81929231 -0.8975541 -0.23622155
1.0088848 -1.10642 -0.23715468
1.3180461 -1.4469907 -0.24032637
3.0455313 -3.3552213 -0.079094306
0.63414025 -0.7028026 -0.25364268
0.71498656 -0.79323727 -0.24654636
0.83139426 -0.9236809 -0.2415642
1.0037776 -1.1163743 -0.23778042
1.2946472 -1.4413888 -0.23788899
1.7852943 -1.9904419 -0.233926
3.0193665 -3.3734212 -0.079024501
0.63949132 -0.718759 -0.25778377
3.0201209 -3.3968649 0.07933864
0.70425296 -0.79238313 -0.24474674
0.80928713 -0.91184253 -0.23698479
0.9959594 -1.1233547 -0.23778042
1.2555979 -1.4176987 -0.23252673
2.9934988 -3.3906827 1.0442228
2.9917724 -3.3899202 -0.078919783
0.63190991 -0.72030145 -0.2567485
2.9963329 -3.4178662 0.07933864
0.70384151 -0.80314273 -0.24654636
2.9816837 -3.4047506 0.23718657
0.79514408 -0.90860552 -0.23469506
2.9896891 -3.4175007 0.39725587
0.99589342 -1.1392035 -0.23965763
2.9802797 -3.4115477 0.55621171
1.2743961 -1.4593244 -0.23788899
1.7707789 -2.0298817 -0.23566914
2.9800811 -3.4185388 0.88153762
2.9741893 -3.4153893 1.0455725
2.9667208 -3.4092145 -0.078884877
0.61422741 -0.71008468 -0.25157213
2.986079 -3.4533083 0.079687685
0.7058621 -0.81688398 -0.24924576
2.9832454 -3.453685 0.23917533
0.79920357 -0.92588633 -0.23774803
2.9826758 -3.4579022 0.39952192
0.97521645 -1.1309958 -0.23652895
2.9738343 -3.4513049 0.55938035
1.2615864 -1.4651771 -0.2374015
2.972945 -3.453928 0.7217887
2.9817369 -3.4690378 0.88916999
2.9680457 -3.4567688 1.0518711
2.9545674 -3.4435019 -0.079199016
2.9656832 -3.4576783 1.2205906
0.61439532 -0.72012758 -0.25364268
0.69017303 -0.80980438 -0.24564654
0.7952652 -0.93443334 -0.23851125
2.9745619 -3.4963346 0.40161365
0.96985584 -1.1407863 -0.23715468
2.9522381 -3.4750073 0.5598678
1.2515842 -1.4737306 -0.2374015
2.9538727 -3.4806232 0.72304016
1.7216461 -2.0300956 -0.23288015
2.946629 -3.4757755 0.88573539
2.9396276 -3.4699714 -0.23833798
2.9539139 -3.4893041 1.0554703
2.9452698 -3.4803243 -0.079582974
2.9489563 -3.487149 1.2236965
0.60935289 -0.72439933 -0.25364268
2.9787469 -3.5436475 0.080804639
0.67948812 -0.80863523 -0.24384695
2.9552836 -3.5194738 0.24085009
0.79377007 -0.94597834 -0.24003772
2.9897733 -3.5643363 0.40701729
0.96948189 -1.1566129 -0.2390319
2.962322 -3.5366211 0.56644875
1.2489117 -1.4915642 -0.23886393
2.9726007 -3.5526698 0.73367769
1.7125436 -2.0481789 -0.23357739
2.9663594 -3.5489848 0.89909208
2.9447792 -3.5256658 -0.24074543
2.9532075 -3.5382667 1.0640185
2.9580524 -3.5453286 -0.08059521
2.9554677 -3.5447459 1.2366375
0.62894547 -0.75837606 -0.26399544
2.9424512 -3.5504994 0.080490492
0.69123137 -0.83436847 -0.25014558
2.938283 -3.5492506 0.24147813
0.77963811 -0.94242042 -0.23774803
2.9483106 -3.5651619 0.40475124
0.9538334 -1.1542165 -0.23715468
2.9274478 -3.5449708 0.5644989
1.2233033 -1.4818766 -0.23593907
2.9401844 -3.564193 0.73180056
1.6931338 -2.0539353 -0.23288015
2.9402623 -3.5680916 0.89871037
2.9175546 -3.5430546 -0.24053608
2.921005 -3.5497689 1.0613191
2.9141746 -3.5427284 -0.080071643
2.930649 -3.5652924 1.2366375
0.59917933 -0.73283666 -0.25364268
2.9213881 -3.5756006 0.08059521
0.6779933 -0.83011788 -0.24744615
2.910907 -3.566582 0.24126878
0.7556681 -0.92654067 -0.23240536
2.9120188 -3.5717599 0.40318248
0.96571547 -1.1853507 -0.24216059
2.9101481 -3.574558 0.56596124
1.2354826 -1.5180943 -0.24032637
2.9065053 -3.5739043 0.72961038
1.6737272 -2.0595205 -0.23218289
2.9128051 -3.5854843 0.89794719
2.8927486 -3.5633364 -0.24053608
2.8936961 -3.5670481 1.0604193
2.8805537 -3.5521145 -0.079827309
2.8923082 -3.569155 1.2309434
0.59404868 -0.73700172 -0.25364268
2.8850658 -3.5818925 0.080281071
0.67951435 -0.84393823 -0.25014558
2.884685 -3.5852611 0.24116412
0.76886421 -0.95627415 -0.23851125
2.8832679 -3.5873437 0.40265954
0.93762505 -1.1674216 -0.23715468
2.8813941 -3.5901425 0.56523001
1.2099473 -1.5081022 -0.2374015
2.881484 -3.5941081 0.72961038
1.6667826 -2.0804849 -0.23322876
2.8742034 -3.5888751 0.89374936
2.8640573 -3.5787666 -0.24022207
2.8711579 -3.5902064 1.0613191
2.8556855 -3.5721376 -0.079827309
2.8637035 -3.5847318 1.2293905
0.59609979 -0.75020611 -0.2567485
2.8562591 -3.5972486 0.080176361
0.65906775 -0.83034509 -0.24474674
2.8571031 -3.6021826 0.24095476
0.77436417 -0.97700441 -0.24232745
2.8581531 -3.6073852 0.40265954
0.91964269 -1.1615492 -0.23465173
2.8488708 -3.6008306 0.56376767
1.2092407 -1.5289683 -0.23935141
2.8538733 -3.6110377 0.72898471
1.6571569 -2.0983245 -0.233926
2.8417792 -3.5996079 0.8914597
2.8303442 -3.5876975 -0.23948936
2.8411973 -3.6040416 1.0595194
2.8306777 -3.5919869 -0.079827309
2.8409979 -3.6076722 1.2304258
0.58370054 -0.74522412 -0.25364268
2.8286111 -3.6139514 0.080106542
0.64604986 -0.82571721 -0.24204734
2.8232741 -3.6110272 0.24022207
0.757855 -0.97001004 -0.2392745
2.8316729 -3.6256802 0.40248519
0.91880322 -1.1772846 -0.23652895
2.8175588 -3.6128047 0.56254894
1.176568 -1.5091932 -0.23496412
2.8249524 -3.6261983 0.72804612
1.6375721 -2.103554 -0.23322876
2.8189914 -3.6224582 0.89222288
2.8015504 -3.6026394 -0.23917533
2.8075974 -3.6130176 1.0563701
2.805532 -3.611661 -0.079827309
2.808635 -3.6182621 1.22732
0.58556724 -0.75845581 -0.2567485
2.8033118 -3.6336107 0.080106542
0.65455061 -0.84872496 -0.24744615
2.7906806 -3.6211569 0.23959403
0.74866885 -0.9721663 -0.23851125
2.8038616 -3.6422033 0.40213659
0.91778857 -1.1930646 -0.23840615
2.7910588 -3.6308134 0.56230521
1.1660032 -1.5173703 -0.23496412
2.7947552 -3.639565 0.72679466
1.6398273 -2.1370645 -0.23566914
2.7936335 -3.64205 0.89222288
2.7751162 -3.6205251 -0.23907068
2.7834907 -3.6340775 1.0568202
2.7705245 -3.6184568 -0.079548068
2.784481 -3.6393163 1.2278377
0.56153995 -0.73792779 -0.2484663
2.7802973 -3.6562765 0.080176361
0.64625102 -0.85017103 -0.24654636
2.7665408 -3.6421423 0.23969871
0.7371158 -0.97111416 -0.23698479
2.7675273 -3.6474042 0.40056777
0.92614597 -1.2214797 -0.24278632
2.7644436 -3.6486273 0.56206143
1.1577786 -1.5286385 -0.23545158
2.7657025 -3.6542616 0.72585601
1.6060091 -2.1227546 -0.23288015
2.7645872 -3.6567659 0.89107805
2.744957 -3.6334364 -0.23865199
2.7586901 -3.6529396 1.0568202
2.7391729 -3.6297297 -0.079373546
2.75319 -3.650954 1.2252494
0.55637473 -0.74183005 -0.2484663
2.7445498 -3.6607168 0.079862215
0.64263672 -0.85778117 -0.24744615
2.7392912 -3.6576915 0.23948936
0.72343069 -0.9666779 -0.23469506
2.7408035 -3.6650407 0.40039349
0.89652079 -1.1992766 -0.23715468
2.7395444 -3.6673596 0.56206143
1.1447037 -1.5335023 -0.23496412
2.7360392 -3.6666701 0.72460455
1.5840048 -2.124331 -0.23183426
2.7354722 -3.6712542 0.88993317
2.7237406 -3.6568413 -0.23896599
2.7296302 -3.6674204 1.0554703
2.7149591 -3.6503687 -0.079408452
2.7236648 -3.6634088 1.2231789
0.56739223 -0.76734662 -0.25571322
2.7129848 -3.6717465 0.079687685
0.62983656 -0.85273039 -0.24474674
2.7172472 -3.6815469 0.23980337
0.72831756 -0.9875049 -0.23851125
2.713428 -3.6804042 0.40004486
0.88812643 -1.2055062 -0.23715468
2.7091675 -3.6800013 0.56108648
1.146005 -1.5572467 -0.2374015
2.7103748 -3.6856813 0.72460455
1.5880123 -2.161026 -0.23462325
2.7046082 -3.6818774 0.8880251
2.6922355 -3.667717 -0.23844264
2.7028077 -3.6848152 1.0550205
2.6924145 -3.6719899 -0.079478264
2.7014482 -3.6870091 1.2247318
0.56202137 -0.77128899 -0.25571322
2.6896393 -3.6938298 0.079757497
0.61698717 -0.84765339 -0.24204734
2.6820805 -3.6875052 0.23896599
0.72833121 -1.002094 -0.24080098
2.6876681 -3.6992579 0.40004486
0.87968886 -1.2116771 -0.23715468
2.6787479 -3.6923978 0.56011152
1.1257824 -1.5523533 -0.23545158
2.6834183 -3.7029135 0.72429162
1.5612015 -2.1559227 -0.23288015
2.6742334 -3.6943085 0.88649869
2.6642237 -3.6831863 -0.23823328
2.6701677 -3.6941187 1.0523211
2.664371 -3.6874547 -0.079408452
2.6733809 -3.7026458 1.2236965
0.56113023 -0.78147078 -0.25778377
2.6614547 -3.7092679 0.079687685
0.62468386 -0.87094241 -0.24744615
2.6527812 -3.7012699 0.23865199
0.71903133 -1.003962 -0.24003772
2.6652565 -3.722791 0.40056777
0.87120843 -1.2177888 -0.23715468
2.6494417 -3.7061646 0.55938035
1.1010677 -1.5407939 -0.23252673
2.6448748 -3.7038734 0.72085011
1.5461123 -2.1667693 -0.23288015
2.6517975 -3.7176831 0.88764352
2.6384451 -3.7016964 -0.23823328
2.6375299 -3.703146 1.0496217
2.6339238 -3.6994498 -0.079268835
2.6474664 -3.7212195 1.2236965
0.56235552 -0.7948314 -0.26088959
2.6366489 -3.7293904 0.079722598
0.61184007 -0.86573374 -0.24474674
2.6245728 -3.7164361 0.23844264
0.7120049 -1.0089574 -0.24003772
2.6311624 -3.7299101 0.3993476
0.86951411 -1.2335287 -0.2390319
2.6257894 -3.7278163 0.5598678
1.1017127 -1.5646741 -0.23496412
2.6144059 -3.715786 0.71959865
1.5355314 -2.1840296 -0.23357739
2.62465 -3.7344987 0.88726187
2.6033559 -3.7069502 -0.23739593
2.6149712 -3.7262547 1.0509714
2.6011426 -3.7079251 -0.0790594
2.6169879 -3.7332838 1.2216259
0.52585995 -0.7543636 -0.24639574
2.6059768 -3.7411437 0.079582974
0.61468989 -0.88277793 -0.24834597
2.6019857 -3.7395868 0.23875666
0.69821936 -1.0042318 -0.23774803
2.6027846 -3.744916 0.39899898
0.85412055 -1.2298341 -0.23715468
2.5985687 -3.7444258 0.55962408
1.0907624 -1.5723275 -0.23496412
2.5951531 -3.7436874 0.72147578
2.5918086 -3.7430465 0.88497216
2.5705943 -3.7151797 -0.23676789
2.5895472 -3.7439678 1.0509714
2.5740561 -3.7243493 -0.079024501
2.5886652 -3.7482834 1.2205906
0.54245383 -0.78986585 -0.2567485
2.5759242 -3.7522001 0.07944335
0.59969294 -0.874192 -0.24474674
2.5764711 -3.7572112 0.23875666
0.69358706 -1.0122002 -0.23851125
2.5788283 -3.7662835 0.3993476
0.84796107 -1.2388797 -0.23778042
2.5707803 -3.75875 0.55913663
1.0842394 -1.5864596 -0.23593907
2.5696108 -3.7612655 0.72147578
2.5611887 -3.7545619 0.88344568
2.540746 -3.7259905 -0.23634921
2.5633464 -3.7619548 1.0509714
2.5524945 -3.7488403 -0.079164118
2.5641789 -3.7674141 1.2211083
0.54789287 -0.80953866 -0.26192489
2.5496664 -3.770092 0.07944335
0.59809434 -0.88471144 -0.24654636
2.5445879 -3.7668314 0.23823328
0.69529104 -1.0300355 -0.2415642
2.5453317 -3.7721887 0.39812744
0.84150004 -1.2480451 -0.23840615
2.54004 -3.7700207 0.55816168
1.0711977 -1.5905099 -0.23545158
2.545496 -3.7823906 0.72210157
2.5377636 -3.7751672 0.88420898
2.5294182 -3.7684314 1.047822
2.5280321 -3.7677882 -0.079199016
0.53794152 -0.80691427 -0.25985435
2.5232844 -3.7878001 0.07944335
0.59406358 -0.89210927 -0.24744615
2.5126967 -3.7761905 0.23770994
0.67503893 -1.0152463 -0.23698479
2.5222433 -3.7948444 0.39865038
0.8415097 -1.2670536 -0.2409091
2.5136585 -3.7876616 0.55816168
1.0534836 -1.5880244 -0.23398916
2.5081136 -3.7836044 0.71897286
2.5070109 -3.7862442 0.8826825
2.5030479 -3.7859983 1.047822
2.4928465 -3.7719991 -0.078919783
