# .PCD v0.7 - Point Cloud Data file format
VERSION 0.7
FIELDS x y z
SIZE 4 4 4
TYPE F F F
COUNT 1 1 1
WIDTH 1312
HEIGHT 1
VIEWPOINT 0 0 0 1 0 0 0
POINTS 1312
DATA ascii
-1.2219206 0.67481416 -0.27133042
-0.91464353 -0.38654882 -0.26606598
-0.93039215 -0.34693408 -0.26606598
-1.1165695 -0.31259215 -0.26769176
-0.94187826 -0.31441709 -0.26606598
-0.94202602 -0.30780941 -0.26554835
-1.1236951 -0.28194201 -0.26746681
-1.1338671 -0.24245927 -0.26769176
-1.1283414 -0.24952768 -0.26679197
-0.96284395 -0.24274342 -0.26606598
-0.9648028 -0.23483688 -0.26606598
-0.96920872 -0.21593353 -0.26606598
-0.97348416 -0.19575857 -0.26606598
-0.97494215 -0.18836206 -0.26606598
-0.97755343 -0.17430481 -0.26606598
-0.97701144 -0.15421906 -0.26503071
-0.98635554 -0.12508339 -0.26641107
-0.98643082 -0.11378516 -0.26606598
-0.99104255 -0.10731175 -0.26710126
-0.98547763 -0.095227808 -0.26528955
-0.95873994 0.22698981 -0.26399544
-0.96977818 0.23067588 -0.26710126
-0.9514789 0.24040775 -0.26296017
-0.94633806 0.24491572 -0.26192489
-0.96473455 0.25093496 -0.26710126
-0.95202821 0.25367087 -0.26399544
-0.94802958 0.2536689 -0.26296017
-0.94634193 0.28770077 -0.26503071
-0.94016284 0.30729246 -0.26503071
-0.93978667 0.30844098 -0.26503071
-0.93218106 0.31897515 -0.26399544
-0.93179065 0.32011372 -0.26399544
-0.92335105 0.32669649 -0.26244253
-0.92628849 0.33568966 -0.26399544
-0.91768712 0.33673403 -0.26192489
-0.91265851 0.34650993 -0.26157978
-0.91195935 0.36254391 -0.26296017
-0.90407485 0.3648968 -0.2612347
-0.89934313 0.37307188 -0.26088959
-0.88864511 0.39788249 -0.26088959
-0.88639677 0.40750307 -0.26140726
-0.88177818 0.41286743 -0.26088959
-0.87726289 0.42238668 -0.26088959
-0.87707138 0.44457746 -0.2634778
-0.86856019 0.44848931 -0.26192489
-0.87597805 0.45096466 -0.26399544
-0.86540812 0.45454186 -0.26192489
-0.87255788 0.47395736 -0.26606598
-0.86592907 0.47801846 -0.26503071
-0.84934247 0.47604394 -0.26088959
0.84900993 0.47663698 -0.26088959
-0.85632515 0.48725134 -0.26399544
-0.84286839 0.48741516 -0.26088959
-0.84234375 0.49598035 -0.26192489
-0.84871894 0.5079478 -0.26503071
-0.83923495 0.50496888 -0.26244253
-0.82901949 0.51061469 -0.26088959
-0.84453374 0.52956951 -0.26710126
-1.6176814 0.53155375 -0.26969305
-1.5873919 0.53498721 -0.26531288
-0.8227827 0.53136474 -0.26244253
-0.81420612 0.53391838 -0.26088959
-1.5952549 0.54866731 -0.2671901
-1.602052 0.55319518 -0.26844159
-0.80260557 0.55120313 -0.26088959
-0.81141639 0.56563079 -0.26503071
-0.78405035 0.58377469 -0.26192489
-0.77862149 0.59100592 -0.26192489
-1.2097179 0.60525352 -0.2629348
-0.77320862 0.62300986 -0.26606598
-0.76323795 0.62303632 -0.26399544
-0.7482729 0.62898898 -0.26192489
-1.2002512 0.63228524 -0.26369804
-0.74680364 0.63670421 -0.26296017
-1.2061909 0.64621192 -0.26598775
-1.1886477 0.64565152 -0.2629348
-0.74818581 0.64695662 -0.26503071
-0.73307145 0.64663059 -0.26192489
-1.2052131 0.65628481 -0.26675099
-1.204037 0.66658479 -0.26751423
-1.17917 0.66280222 -0.2629348
-0.71844774 0.67419547 -0.26399544
-0.68643105 0.69051653 -0.26088959
-0.67194247 0.70462334 -0.26088959
-0.66203898 0.71393633 -0.26088959
-0.65143651 0.73398805 -0.26296017
-0.61009496 0.75880486 -0.26088959
-0.59114176 0.77851844 -0.26192489
-0.56152296 0.79541981 -0.26088959
-0.50896764 0.83908278 -0.26296017
-0.48431945 0.84910196 -0.26192489
-0.47559956 0.84959149 -0.26088959
-0.44081742 0.86814785 -0.26088959
-0.4217743 0.87755746 -0.26088959
0.42773747 0.87466645 -0.26088959
0.39772734 0.88871461 -0.26088959
0.3356126 0.91809791 -0.26192489
-0.32292259 0.92263782 -0.26192489
-0.28953993 0.92960602 -0.26088959
0.29602233 0.92756212 -0.26088959
0.30313668 0.9252615 -0.26088959
0.32419896 0.92628455 -0.26296017
-0.31995121 0.9318465 -0.26399544
0.27734682 0.93331635 -0.26088959
0.31559193 0.93128717 -0.2634778
-0.25134334 0.94065255 -0.26088959
-0.21852772 0.94881308 -0.26088959
0.23802043 0.9441117 -0.26088959
0.18601651 0.95965481 -0.26192489
0.2048433 0.9518612 -0.26088959
0.24588346 0.95007861 -0.26296017
-0.26320595 0.96145916 -0.26710126
-0.1660466 0.96331096 -0.26192489
-0.13786234 0.96384364 -0.26088959
-0.091628894 0.96933216 -0.26088959
0.18664242 0.96740443 -0.26399544
0.23601522 0.96451521 -0.26606598
-0.16651194 0.97107178 -0.26399544
0.044507451 0.97263545 -0.26088959
0.1121833 0.97105837 -0.26192489
0.14073367 0.97904485 -0.26503071
-1.1104548 -2.7122881 -0.25641221
-1.0914624 -2.7178397 -0.25623786
-1.0870732 -2.711014 -0.25554064
-1.0685583 -2.714083 -0.25519201
-1.0019888 -2.7160096 -0.25327459
-0.99835753 -2.7003591 -0.25188008
-0.97812545 -2.7035162 -0.25153148
-1.0593774 -2.6962843 -0.2534489
-1.0409812 -2.6991694 -0.25310028
-1.0390967 -2.6998954 -0.25310028
-1.0183544 -2.6992707 -0.25240302
-0.97353172 -2.6967022 -0.25083423
-0.95523906 -2.6990097 -0.2504856
-1.1870002 -2.6862092 -0.25693512
-1.2026781 -2.6661177 -0.25588927
-1.2448529 -2.659893 -0.25693512
-1.2564052 -2.6412239 -0.25588927
-1.2760906 -2.6361973 -0.25623786
-1.3199667 -2.6278887 -0.25728375
-1.298061 -2.6298933 -0.25658652
-1.2727146 -2.6245496 -0.25519201
-1.3450484 -2.5882249 -0.25519201
-1.3395711 -2.5820887 -0.25449476
-1.3147213 -2.5769489 -0.25310028
-1.3110799 -2.5653856 -0.25205442
-0.47834805 -2.0001512 -0.25251329
-0.47789192 -1.9920956 -0.25153834
-0.50260431 -1.981909 -0.25105089
-0.49178773 -1.9887106 -0.25153834
-0.5862934 -1.9629277 -0.25153834
-0.54328686 -1.9670266 -0.25056338
-0.59901929 -1.9507768 -0.25056338
-0.58424705 -1.9511079 -0.25007591
-0.59649462 -1.9473984 -0.25007591
-0.65029949 -1.9300977 -0.25007591
-0.63940358 -1.9379157 -0.25056338
-0.67816859 -1.9246925 -0.25056338
-0.7064985 -1.9165906 -0.25080714
-0.69191551 -1.9155729 -0.25007591
-0.73306823 -1.9087131 -0.25105089
-0.71859342 -1.9057256 -0.25007591
-0.75735658 -1.8906553 -0.25007591
-0.74502897 -1.8976794 -0.25031966
-0.80233866 -1.8892751 -0.25202581
-0.78520799 -1.8835609 -0.25056338
-0.77119541 -1.8850528 -0.25007591
-0.81044942 -1.872839 -0.25056338
-0.79899395 -1.8777547 -0.25056338
-0.86539799 -1.8524743 -0.25105089
-0.84848738 -1.8515494 -0.25007591
-0.90096992 -1.8310126 -0.25056338
-0.87425613 -1.8395222 -0.25007591
-0.94428128 -1.822482 -0.25202581
-0.91290653 -1.8206505 -0.25007591
-0.94957745 -1.8017961 -0.25007591
-0.93823755 -1.807727 -0.25007591
-1.0089455 -1.792052 -0.25251329
-0.99350107 -1.7915862 -0.25153834
-0.96338487 -1.7967041 -0.25031966
-0.98679215 -1.7816868 -0.25007591
-1.0132346 -1.7713583 -0.25056338
-1.059512 -1.7626275 -0.25251329
-1.0431377 -1.7631475 -0.25153834
-1.0251935 -1.7621675 -0.25031966
-1.0866728 -1.7553593 -0.25348827
-1.0702597 -1.7561224 -0.25251329
-1.0538888 -1.7567424 -0.25153834
-1.1127523 -1.7413001 -0.25373203
-1.067348 -1.7485976 -0.25153834
-1.1245792 -1.7336855 -0.25373203
-1.0916584 -1.7335246 -0.25153834
-1.0883347 -1.7309252 -0.25105089
-1.0774374 -1.7377293 -0.25105089
-1.1327779 -1.7212149 -0.2530008
-1.1317947 -1.7171086 -0.25251329
-1.170531 -1.7005885 -0.25348827
-1.1572948 -1.7048271 -0.2530008
-1.1425611 -1.7099637 -0.25251329
-1.1393389 -1.7025664 -0.25153834
-1.1717179 -1.6997708 -0.25348827
-1.1930125 -1.6824604 -0.25324452
-1.1784153 -1.6854551 -0.25251329
-1.1918879 -1.6783901 -0.25275704
-1.2152059 -1.6615851 -0.25275704
-1.1966127 -1.6628119 -0.25153834
-1.2093626 -1.6560204 -0.25178206
-1.1931305 -1.6555341 -0.25056338
-1.2208611 -1.6450908 -0.25153834
-1.2197126 -1.6459423 -0.25153834
-1.2323663 -1.6389737 -0.25178206
-1.2287338 -1.6317699 -0.25080714
-1.2413703 -1.6271738 -0.25129461
-1.2376854 -1.6199973 -0.25031966
-0.6470471 -1.4417636 -0.25029516
-0.6977123 -1.4179386 -0.25029516
-0.72907245 -1.4065236 -0.25092092
-0.73678744 -1.3980333 -0.25029516
-0.75526619 -1.3881375 -0.25029516
-0.78637081 -1.3753092 -0.25092089
-0.80537856 -1.3642654 -0.25092092
-0.83110738 -1.3441031 -0.25029516
-0.854743 -1.3385824 -0.25154665
-0.90070999 -1.3080941 -0.25154665
-1.0788387 -1.1601562 -0.25092092
-1.8322409 -0.98532283 -0.25543818
-1.8179486 -0.98255134 -0.253732
-1.8379983 -0.97453958 -0.25543818
-1.8100697 -0.97625256 -0.25251329
-1.8504871 -0.95061326 -0.25543818
-1.8247856 -0.95275778 -0.25275704
-1.840552 -0.9438861 -0.25397575
-1.8535342 -0.93588173 -0.25495067
-1.878721 -0.91185296 -0.25641313
-1.8499936 -0.91633362 -0.25348827
-1.8222798 -0.91850442 -0.25056338
-1.8626075 -0.89041418 -0.25348827
-1.8456362 -0.898184 -0.25202581
-1.8686249 -0.87771559 -0.25348827
-1.874707 -0.8646487 -0.25348827
-1.903299 -0.85937268 -0.25641313
-1.8552339 -0.84040093 -0.25007591
-1.9151123 -0.8327145 -0.25641313
-1.8828228 -0.83710557 -0.2530008
-1.8884768 -0.82427061 -0.2530008
-1.9135753 -0.81620938 -0.25543818
-1.9051343 -0.81575471 -0.2544632
-1.9283201 -0.79125494 -0.25592566
-1.8998015 -0.79782283 -0.2530008
-1.8979826 -0.78151745 -0.25202581
-1.9087094 -0.75494111 -0.25202581
-1.9184123 -0.74102336 -0.25251329
-1.9235389 -0.72761232 -0.25251329
-1.9078016 -0.7243253 -0.25056338
-1.912812 -0.71098822 -0.25056338
-1.4324129 -0.68598974 -0.25154665
0.66783202 -0.68172956 -0.25571322
0.67618322 -0.67617369 -0.25623086
0.68172956 -0.66783202 -0.25571322
0.70490193 -0.64332563 -0.25571322
0.7236051 -0.61627179 -0.25467795
0.75985396 -0.57738781 -0.25571322
0.76162416 -0.56213349 -0.25364268
0.77522093 -0.54321891 -0.25364268
0.7840597 -0.53725731 -0.25467795
0.79417706 -0.53265131 -0.25623086
0.7866112 -0.52659023 -0.25364268
0.79477483 -0.52127552 -0.25467795
0.79884434 -0.51501739 -0.25467795
0.80224282 -0.50246578 -0.25364268
0.80952281 -0.49065077 -0.25364268
0.81582135 -0.487679 -0.25467795
0.82924163 -0.46449268 -0.25467795
0.8323583 -0.45486024 -0.25416031
0.8440246 -0.45360571 -0.2567485
0.84511667 -0.44331995 -0.25571322
0.83655608 -0.4346621 -0.25260741
0.84170133 -0.43313301 -0.25364268
0.84729874 -0.42207837 -0.25364268
0.85797197 -0.42664778 -0.2567485
0.85738498 -0.41910121 -0.25571322
0.86007357 -0.41355571 -0.25571322
0.86144447 -0.39240131 -0.25364268
0.86683929 -0.38033539 -0.25364268
0.87283605 -0.38587677 -0.25571322
0.88038433 -0.37824294 -0.2567485
0.8729791 -0.36601076 -0.25364268
0.86766261 -0.35868815 -0.25157213
0.88513023 -0.35677752 -0.25571322
0.87734628 -0.34499106 -0.25260741
0.88908476 -0.34681842 -0.25571322
0.88787514 -0.33922407 -0.25467795
0.89745927 -0.3357248 -0.2567485
0.88192183 -0.32203957 -0.25157213
0.89978117 -0.32945117 -0.2567485
0.89235985 -0.31582594 -0.25364268
0.9042933 -0.31685621 -0.2567485
0.89933419 -0.30756018 -0.25467795
0.90512383 -0.30249891 -0.25571322
0.91294038 -0.29100534 -0.2567485
0.90169579 -0.28811467 -0.25364268
0.8963083 -0.27951223 -0.25157213
0.90084457 -0.26450667 -0.25157213
0.91676623 -0.26513106 -0.25571322
0.91510034 -0.25687844 -0.25467795
0.90558195 -0.24782412 -0.25157213
0.92602301 -0.24622262 -0.2567485
0.90885121 -0.23555267 -0.25157213
0.91812813 -0.2304475 -0.25364268
0.91047353 -0.229202 -0.25157213
0.92346859 -0.2249466 -0.25467795
0.93160045 -0.22417343 -0.2567485
0.91507387 -0.21008423 -0.25157213
0.91522038 -0.20944533 -0.25157213
0.92416894 -0.20488332 -0.25364268
0.91802114 -0.19680665 -0.25157213
0.9268052 -0.19260702 -0.25364268
0.92055082 -0.18461263 -0.25157213
0.93204582 -0.18624114 -0.25467795
0.92482454 -0.17614627 -0.25226232
0.9382022 -0.17473249 -0.25571322
0.93628526 -0.16357633 -0.25467795
0.92548484 -0.15802976 -0.25157213
0.93797779 -0.15359975 -0.25467795
0.93606263 -0.14089778 -0.25364268
0.92851865 -0.1390994 -0.25157213
0.94859195 -0.13534246 -0.2567485
0.93793857 -0.12781458 -0.25364268
0.94495946 -0.12385851 -0.25536814
0.93581653 -0.11407359 -0.25260741
0.9522025 -0.1069749 -0.2567485
0.94184434 -0.094838746 -0.25364268
1.0832592 -0.094772898 -0.25104538
0.93505466 -0.084603012 -0.25157213
0.94251436 -0.087932184 -0.25364268
0.935947 -0.074153736 -0.25157213
0.94358456 -0.075587519 -0.25364268
0.93666118 -0.064430013 -0.25157213
0.95588177 -0.066506475 -0.2567485
0.94690859 -0.055592686 -0.25416031
0.93776131 -0.045700122 -0.25157213
0.95725703 -0.042464331 -0.2567485
0.96079594 -0.049344324 -0.25778377
0.94591588 -0.03617309 -0.25364268
0.93851274 -0.026051104 -0.25157213
0.94616574 -0.028907979 -0.25364268
0.93874818 -0.015730347 -0.25157213
0.95805544 -0.016555656 -0.2567485
1.0833279 -0.01928783 -0.25014558
0.93883669 -0.0090124626 -0.25157213
0.9465571 -0.0097474614 -0.25364268
0.93887174 0.0039332537 -0.25157213
0.95041895 0.0099532679 -0.25467795
0.93873984 0.016222075 -0.25157213
0.94645137 0.01718148 -0.25364268
0.94632876 0.022962769 -0.25364268
0.94600743 0.033531543 -0.25364268
0.96147609 0.033407584 -0.25778377
0.94740087 0.046335835 -0.25416031
0.96034884 0.057391685 -0.25778377
0.94812119 0.066714942 -0.25467795
0.9358294 0.075623587 -0.25157213
0.94688308 0.08250878 -0.25467795
0.95067412 0.083507858 -0.25571322
1.0800247 0.086706758 -0.25014558
0.95170575 0.093238011 -0.25623086
0.94684124 0.10277541 -0.25519559
0.94334579 0.11616309 -0.25467795
0.95338243 0.11359371 -0.25726613
0.93452334 0.12418041 -0.25260741
0.94165456 0.12915826 -0.25467795
0.92925763 0.13407387 -0.25157213
0.94849712 0.13600495 -0.2567485
0.93555939 0.14416364 -0.25364268
0.94583988 0.15336218 -0.2567485
0.92415738 0.16561626 -0.25157213
0.93227661 0.16405004 -0.25364268
0.93440378 0.17402522 -0.25467795
0.9356221 0.18805811 -0.25571322
0.94454616 0.18274613 -0.25778377
0.91907239 0.1918371 -0.25157213
0.93750358 0.20418622 -0.25709358
0.91507387 0.21008426 -0.25157213
0.92166662 0.21583559 -0.25364268
2.0252106 0.21607526 -0.25007591
0.91485703 0.227577 -0.25260741
0.93535995 0.22506437 -0.25778377
2.0277979 0.22888798 -0.25056338
0.90876889 0.23586991 -0.25157213
0.90701556 0.24252495 -0.25157213
0.9146511 0.24388258 -0.25364268
0.90354085 0.25516576 -0.25157213
0.91492081 0.25751722 -0.25467795
0.92403847 0.25356844 -0.2567485
0.90920514 0.26346031 -0.25364268
0.92794782 0.26818934 -0.25881904
0.91484582 0.27168342 -0.25571322
0.90717596 0.28359649 -0.25467795
0.89105636 0.29581061 -0.25157213
0.90905654 0.29046687 -0.25571322
0.91344571 0.29573295 -0.25726613
0.88794154 0.30504993 -0.25157213
0.89758509 0.30067655 -0.25364268
0.88600743 0.31062263 -0.25157213
0.88878292 0.32577625 -0.25364268
0.89086825 0.32002991 -0.25364268
0.88408875 0.33830824 -0.25364268
0.87351525 0.34417498 -0.25157213
0.88530439 0.34587771 -0.25467795
0.86840659 0.35686809 -0.25157213
0.87927896 0.35061917 -0.25364268
0.87333965 0.36514705 -0.25364268
0.85943341 0.37798131 -0.25157213
0.86947334 0.37427461 -0.25364268
0.85549068 0.38680822 -0.25157213
0.86416304 0.38637757 -0.25364268
0.89043164 0.38421768 -0.25985435
0.85167432 0.39515373 -0.25157213
0.84045511 0.41848627 -0.25157213
0.86757606 0.42464623 -0.25881904
0.83150661 0.43599579 -0.25157213
0.82813388 0.44236839 -0.25157213
0.82219356 0.45331368 -0.25157213
0.81554067 0.46517625 -0.25157213
0.80904943 0.47637653 -0.25157213
-0.84238976 0.48049068 -0.25985435
0.80587214 0.48173189 -0.25157213
0.79534584 0.49891937 -0.25157213
0.79532194 0.50619018 -0.25260741
-0.82215899 0.5143407 -0.25985435
0.79343653 0.51624882 -0.25364268
0.77767867 0.52603352 -0.25157213
0.78459394 0.52266407 -0.25260741
-0.80568194 0.53630662 -0.25933671
0.77568144 0.54424512 -0.25390148
-0.79266894 0.55534995 -0.25933671
0.7588951 0.55278736 -0.25157213
-0.78784633 0.56549966 -0.25985435
0.74739975 0.56823325 -0.25157213
0.76162404 0.56213361 -0.25364268
0.73914057 0.57893592 -0.25157213
-0.77174968 0.587277 -0.25985435
0.74573308 0.58305025 -0.25364268
0.72513646 0.59637606 -0.25157213
-0.75457191 0.60301381 -0.25881904
0.71488672 0.60863173 -0.25157213
0.72503698 0.60859406 -0.25364268
0.73171568 0.60661966 -0.25467795
-0.74250138 0.61479747 -0.25830141
0.70588744 0.61904645 -0.25157213
0.69761413 0.62835503 -0.25157213
0.70209271 0.62334692 -0.25157213
0.71514839 0.62606549 -0.25467795
0.72253537 0.62345606 -0.25571322
-0.72622144 0.63687921 -0.25881904
0.6888839 0.63791418 -0.25157213
-0.72024089 0.64941883 -0.25985435
0.6794582 0.64794457 -0.25157213
0.68959409 0.64847928 -0.25364268
-0.71352053 0.65107691 -0.25881904
0.67091852 0.65678298 -0.25157213
0.68327659 0.65512455 -0.25364268
-0.6920495 0.6683045 -0.25778377
0.66168326 0.6660862 -0.25157213
0.65243649 0.67514604 -0.25157213
-0.68298656 0.68849194 -0.25985435
-0.66525954 0.68961871 -0.2567485
0.6429463 0.68418974 -0.25157213
0.65721208 0.6812765 -0.25364268
0.66795069 0.68161333 -0.25571322
0.68026513 0.68574923 -0.25881904
0.62859863 0.69739467 -0.25157213
0.63345176 0.69298953 -0.25157213
-0.66595721 0.70496905 -0.25985435
0.62371463 0.70176613 -0.25157213
-0.64103568 0.712192 -0.2567485
0.60850674 0.71499306 -0.25157213
0.61397952 0.71029907 -0.25157213
0.64620501 0.7179358 -0.25881904
-0.63942671 0.72912639 -0.25985435
0.5939073 0.72716558 -0.25157213
0.60846734 0.72514331 -0.25364268
0.61414379 0.7203421 -0.25364268
0.62345552 0.72253579 -0.25571322
-0.63179374 0.73064989 -0.25881904
-0.62429875 0.73199362 -0.25778377
0.6088289 0.7349028 -0.25571322
0.61407214 0.73052734 -0.25571322
-0.60507739 0.74546689 -0.25726613
0.5782221 0.74948287 -0.25364268
0.58344036 0.74542785 -0.25364268
0.6028316 0.74977171 -0.25778377
-0.6129356 0.75153297 -0.25985435
-0.58504653 0.75396568 -0.25571322
0.55212474 0.7593773 -0.25157213
0.58241433 0.75600821 -0.25571322
0.59583759 0.75041437 -0.2567485
-0.57180262 0.76406574 -0.25571322
0.54747558 0.7627359 -0.25157213
0.55720329 0.76523846 -0.25364268
0.56456232 0.76463354 -0.25467795
0.57246882 0.76356679 -0.25571322
0.59481579 0.76105636 -0.25881904
-0.58187532 0.77583045 -0.25985435
-0.55542958 0.77762705 -0.25605831
0.52528667 0.77818346 -0.25157213
0.53367388 0.77245003 -0.25157213
0.54349029 0.77503276 -0.25364268
-0.57112306 0.7837795 -0.25985435
-0.54300618 0.78478527 -0.25571322
0.51478136 0.78517234 -0.25157213
0.53261584 0.78254509 -0.25364268
-0.55375004 0.79614866 -0.25985435
-0.53373396 0.79577899 -0.2567485
-0.52297688 0.7982794 -0.25571322
0.49794754 0.7959547 -0.25157213
0.50763577 0.79898137 -0.25364268
0.51529604 0.79866463 -0.25467795
0.52895278 0.79433227 -0.25571322
-0.53135514 0.80432451 -0.25830141
-0.51739115 0.801911 -0.25571322
-0.50493848 0.80525297 -0.25467795
0.48116899 0.80620843 -0.25157213
0.49643105 0.80599105 -0.25364268
0.50684959 0.80861503 -0.25571322
0.51455724 0.80831617 -0.2567485
-0.52438325 0.81119347 -0.25881904
-0.50643617 0.81569719 -0.25726613
0.45918569 0.8189286 -0.25157213
0.4745833 0.81606221 -0.25295249
0.49479818 0.81604505 -0.25571322
0.50119245 0.81213361 -0.25571322
-0.50167286 0.82543147 -0.25881904
-0.49560899 0.8290863 -0.25881904
-0.48350006 0.82278943 -0.25571322
0.45718944 0.82888067 -0.25364268
0.46871755 0.82241666 -0.25364268
0.48407429 0.82245171 -0.25571322
-0.47387567 0.83281815 -0.2567485
0.45202217 0.8339079 -0.25416031
0.46403617 0.83612508 -0.25623086
-0.47459811 0.84572357 -0.25985435
-0.46868226 0.84901631 -0.25985435
-0.4448185 0.84869355 -0.2567485
-0.42958248 0.84785265 -0.25467795
-0.41674647 0.84993398 -0.25364268
0.40656325 0.84628713 -0.25157213
0.42813051 0.84425688 -0.25364268
0.4340145 0.84124714 -0.25364268
0.44685313 0.84324735 -0.25571322
-0.43962616 0.85139477 -0.2567485
-0.42402381 0.85064614 -0.25467795
-0.41510165 0.85503066 -0.25467795
-0.40409198 0.85602283 -0.25364268
0.39795572 0.85889268 -0.25364268
0.40453973 0.8558113 -0.25364268
0.41517699 0.85499251 -0.25467795
0.42739621 0.85759938 -0.2567485
0.4310312 0.85144991 -0.25571322
0.44885361 0.85530293 -0.25881904
-0.40512744 0.8640691 -0.25571322
0.37427434 0.8694734 -0.25364268
0.3953014 0.86861479 -0.25571322
0.40452442 0.86435282 -0.25571322
0.43023929 0.86481601 -0.25881904
-0.40785554 0.87985551 -0.25985435
-0.39423311 0.87333292 -0.2567485
-0.38429344 0.8756507 -0.25623086
-0.37181491 0.87892461 -0.25571322
-0.35659587 0.87687218 -0.25364268
0.35628939 0.8769967 -0.25364268
0.36194536 0.8746776 -0.25364268
-0.3819904 0.8871842 -0.25881904
-0.36566982 0.88149893 -0.25571322
-0.35873532 0.88434374 -0.25571322
-0.34463429 0.88371575 -0.25416031
-0.33738202 0.88444263 -0.25364268
0.34635291 0.88926625 -0.25571322
0.35286179 0.88670361 -0.25571322
0.36551553 0.88156289 -0.25571322
0.3873204 0.88276112 -0.25830141
0.39395517 0.88193649 -0.25881904
0.40231872 0.88240093 -0.25985435
-0.3557958 0.89385271 -0.25778377
-0.34091455 0.89136529 -0.25571322
-0.33504915 0.89564919 -0.25623086
-0.32232907 0.89825314 -0.25571322
-0.30787423 0.89922673 -0.25467795
0.27371815 0.89809465 -0.25157213
0.31333479 0.89324504 -0.25364268
0.33603793 0.89734203 -0.2567485
0.3449811 0.89669639 -0.25743869
0.35683471 0.89759773 -0.25881904
0.36163965 0.89150453 -0.25778377
0.37705669 0.89348757 -0.25985435
-0.33163297 0.90721124 -0.25881904
-0.32545051 0.90944743 -0.25881904
-0.30158895 0.90135413 -0.25467795
-0.29528895 0.90343767 -0.25467795
-0.28780028 0.90179616 -0.25364268
-0.26476622 0.90479481 -0.25260741
0.26036537 0.90205622 -0.25157213
0.28343791 0.90722555 -0.25467795
0.29078391 0.90895522 -0.25571322
0.30404091 0.90868217 -0.2567485
0.3231616 0.90205914 -0.2567485
0.33930984 0.90849358 -0.25985435
-0.31988886 0.91141856 -0.25881904
-0.29447621 0.91994375 -0.25881904
-0.28459051 0.91091335 -0.25571322
-0.27838904 0.91484708 -0.25623086
-0.25506818 0.91292763 -0.25398776
-0.2445576 0.91846979 -0.25467795
-0.23797148 0.91620684 -0.25364268
-0.22515595 0.91944009 -0.25364268
-0.19792815 0.91777998 -0.25157213
0.25615209 0.91129112 -0.25364268
0.28494409 0.91485035 -0.2567485
0.3000904 0.91812772 -0.25881904
0.31477228 0.91728413 -0.25985435
0.33375466 0.91054904 -0.25985435
-0.23211196 0.92169356 -0.25467795
-0.22618456 0.92714363 -0.25571322
-0.21889184 0.92095155 -0.25364268
-0.20604363 0.9278692 -0.25467795
-0.1959222 0.92807871 -0.25416031
-0.1337492 0.92930442 -0.25157213
0.21962392 0.9247489 -0.25467795
0.23170985 0.92179483 -0.25467795
0.24818854 0.92949772 -0.25778377
0.26330972 0.92130399 -0.2567485
0.27543497 0.92985344 -0.25985435
0.28175786 0.92795706 -0.25985435
-0.24104367 0.93137622 -0.25778377
-0.22075905 0.93242139 -0.2567485
-0.20853496 0.93523121 -0.2567485
-0.1954571 0.93805158 -0.2567485
-0.18890306 0.9393934 -0.2567485
-0.17353614 0.93449473 -0.25467795
-0.14835879 0.93882102 -0.25467795
-0.12360413 0.9307037 -0.25157213
-0.10139856 0.93338841 -0.25157213
-0.035386652 0.93821287 -0.25157213
-0.025641616 0.93852431 -0.25157213
-0.015894117 0.93874544 -0.25157213
-0.0093404986 0.93883353 -0.25157213
0.0031954125 0.93887448 -0.25157213
0.087540783 0.9347899 -0.25157213
0.093901232 0.93417239 -0.25157213
0.1004207 0.93349409 -0.25157213
0.12076098 0.9310813 -0.25157213
0.13403195 0.93707031 -0.25364268
0.14775528 0.93500471 -0.25364268
0.16390204 0.93426645 -0.25416031
0.17435154 0.93434292 -0.25467795
0.19425924 0.93435431 -0.25571322
0.20771836 0.93541294 -0.2567485
0.21456967 0.93386507 -0.2567485
0.22529049 0.93729281 -0.25830141
0.24609637 0.93604267 -0.25933671
0.25488147 0.93169099 -0.25881904
-0.1844867 0.94289064 -0.25743869
-0.1689416 0.94318759 -0.2567485
-0.1553438 0.94552237 -0.2567485
-0.14270577 0.94751203 -0.2567485
-0.12882972 0.94169962 -0.25467795
-0.10614723 0.94192737 -0.25398776
-0.095225982 0.94568878 -0.25467795
-0.076392464 0.9473961 -0.25467795
-0.066135608 0.94816029 -0.25467795
-0.055871986 0.94882745 -0.25467795
-0.047066476 0.94543034 -0.25364268
-0.033502337 0.94987464 -0.25467795
-0.01685128 0.94645727 -0.25364268
-0.0028089068 0.94660312 -0.25364268
0.009417397 0.94656044 -0.25364268
0.046076097 0.9454776 -0.25364268
0.056304991 0.94493127 -0.25364268
0.062900037 0.94451523 -0.25364268
0.07639204 0.94739616 -0.25467795
0.084766187 0.94667768 -0.25467795
0.11566845 0.94340658 -0.25467795
0.12620731 0.94334775 -0.25502303
0.14873859 0.94658393 -0.2567485
0.18960008 0.94713485 -0.25881904
0.2102167 0.94277334 -0.25881904
-0.17789525 0.95333362 -0.25985435
-0.15805796 0.95682257 -0.25985435
-0.14933833 0.95040083 -0.25778377
-0.1167748 0.95105618 -0.2567485
-0.096832067 0.95329309 -0.2567485
-0.085410319 0.95696568 -0.25743869
-0.076179631 0.95516539 -0.2567485
-0.069789745 0.95952749 -0.25778377
-0.05699442 0.9565019 -0.2567485
-0.043800958 0.95719677 -0.2567485
0.014503051 0.95550799 -0.25605831
0.026050352 0.95397353 -0.25571322
0.034499038 0.9575724 -0.2567485
0.066172704 0.95590496 -0.2567485
0.073403344 0.9573158 -0.25726613
0.10373534 0.95645314 -0.25778377
0.11289752 0.95540899 -0.25778377
0.14405996 0.95707631 -0.25933671
0.17706285 0.95348859 -0.25985435
-0.12389734 0.9618426 -0.25985435
-0.064183682 0.96379101 -0.25881904
-0.024008773 0.96176255 -0.25778377
-0.0037091051 0.96591866 -0.25881904
0.024031976 0.96949178 -0.25985435
0.049679473 0.96077865 -0.25778377
0.17746893 1.0708421 -0.25059548
-0.95070094 -2.6921608 -0.24978836
-0.92967433 -2.6847394 -0.24856818
-0.9047367 -2.6806314 -0.24752231
-0.92472959 -2.6780164 -0.24787092
-0.90707582 -2.6798408 -0.24752231
-0.88397241 -2.6791594 -0.24682505
-0.88021249 -2.6615169 -0.24525626
-0.85732359 -2.6543255 -0.24403608
-0.83278108 -2.6412442 -0.24229297
-0.85058194 -2.6397524 -0.24264158
-0.82854575 -2.6342223 -0.24159572
-0.80846304 -2.6279507 -0.24054985
0.0031869772 -2.0287619 -0.24910097
0.059714973 -2.0239136 -0.24861349
0.1018872 -2.0182538 -0.248126
0.073263697 -2.0075772 -0.24666359
0.12954547 -2.0087106 -0.24715105
-0.56949925 -1.9513279 -0.24958843
-0.55483872 -1.955547 -0.24958843
-0.56702703 -1.9479132 -0.24910097
-0.55369121 -1.9476185 -0.24861349
-0.53902197 -1.94761 -0.248126
-0.52302009 -1.9478576 -0.24763852
-0.60718203 -1.9316112 -0.24861349
-0.66380602 -1.9212943 -0.24958843
-0.64910644 -1.9221202 -0.24910097
-0.61964303 -1.92765 -0.24861349
-0.51955503 -1.9282333 -0.24520114
-0.68889797 -1.9124408 -0.24958843
-0.67588013 -1.9128699 -0.24910097
-0.66117054 -1.9180039 -0.24910097
-0.6318441 -1.9195058 -0.248126
-0.61855322 -1.9196591 -0.24763852
-0.72902703 -1.8932525 -0.24910097
-0.71273786 -1.8952036 -0.24861349
-0.76387632 -1.8708881 -0.248126
-0.81854504 -1.8541355 -0.24885723
-0.80386043 -1.8540599 -0.248126
-0.83292884 -1.849896 -0.24910097
-0.82838219 -1.8432342 -0.248126
-0.85739309 -1.838685 -0.24910097
-0.88425618 -1.825918 -0.24910097
-0.92284244 -1.8111798 -0.24958843
-0.91017556 -1.8175782 -0.24958843
-0.89698195 -1.8197002 -0.24910097
-0.87952536 -1.8193858 -0.248126
-0.92198634 -1.8071598 -0.24910097
-0.94898158 -1.7976217 -0.24958843
-0.97210234 -1.7829639 -0.24934471
-0.99818605 -1.7707723 -0.24958843
0.834759 -1.774757 -0.24081384
-1.0085504 -1.7603158 -0.24910097
-1.0315057 -1.7469635 -0.24910097
-1.242044 -1.6041231 -0.24910095
-1.2525432 -1.5934144 -0.24885722
-1.2489789 -1.5911657 -0.24836974
-1.2685788 -1.5704838 -0.24788228
-1.2556611 -1.5757573 -0.24739479
-1.2823002 -1.5644368 -0.24836975
-1.2696749 -1.5695978 -0.24788228
-0.061227269 -1.5514385 -0.245915
-0.051749002 -1.5517836 -0.245915
-0.039830919 -1.5521352 -0.245915
-0.018584946 -1.5545104 -0.24622788
-0.007316642 -1.552629 -0.245915
0.012736376 -1.5525939 -0.245915
-1.2837689 -1.5452091 -0.24666359
-0.23475759 -1.5467851 -0.24779223
-0.21449079 -1.5497254 -0.24779223
-0.18061016 -1.5421058 -0.245915
-0.16983983 -1.543329 -0.245915
-0.14719589 -1.5456531 -0.245915
-0.12695123 -1.5474474 -0.245915
-0.11559339 -1.5463562 -0.24560213
-0.10439372 -1.541213 -0.24466354
-0.083807155 -1.5424696 -0.24466354
-0.062422 -1.547437 -0.24528927
-0.050407685 -1.5439221 -0.24466354
-0.040810149 -1.5481577 -0.24528927
-0.029924812 -1.5444549 -0.24466354
0.014055513 -1.5486317 -0.24528927
0.045692056 -1.5440687 -0.24466354
0.06791959 -1.5432508 -0.24466354
-1.2981577 -1.5383391 -0.24715105
-1.2894081 -1.5301372 -0.2456886
-1.27469 -1.5321048 -0.24471366
-0.32180443 -1.5310445 -0.24779223
-0.27752101 -1.5316579 -0.24654076
-0.26749846 -1.5374504 -0.24716648
-0.25503677 -1.5355619 -0.24654076
-0.24369022 -1.5334032 -0.245915
-0.22359784 -1.5364616 -0.245915
-0.20187719 -1.5354815 -0.24528927
-0.18932742 -1.5330987 -0.24466354
-0.17888772 -1.5343518 -0.24466354
-0.15764856 -1.5346934 -0.24435067
-0.14778884 -1.5376588 -0.24466354
-0.13633938 -1.536733 -0.24435067
-0.12491029 -1.5357224 -0.24403779
-0.072663054 -1.5351244 -0.24341206
-0.028357644 -1.5326301 -0.24278632
0.0034781082 -1.5328884 -0.24278632
0.024612732 -1.5326947 -0.24278632
0.06623219 -1.5354154 -0.24341206
0.12146802 -1.5399616 -0.24466354
0.16415083 -1.5359983 -0.24466354
-1.3011205 -1.5201902 -0.2456886
-0.37572244 -1.5227821 -0.24841796
-0.28820723 -1.5296832 -0.24654076
-0.26372716 -1.5220658 -0.24466354
-0.24315776 -1.5214862 -0.24403779
-0.23312627 -1.5270522 -0.24466354
-0.22139257 -1.5287974 -0.24466354
-0.21017523 -1.5263919 -0.24403779
-0.1901775 -1.5290122 -0.24403779
-0.16634917 -1.5238396 -0.24278632
-0.092274189 -1.5261546 -0.24216059
0.023215108 -1.5287654 -0.24216059
0.16197763 -1.5282835 -0.24341206
0.17312968 -1.523084 -0.24278632
0.18510623 -1.5296345 -0.24403779
-1.3117017 -1.5110697 -0.2456886
-1.292321 -1.5120438 -0.2442262
-0.39409778 -1.5140483 -0.24779223
-0.37156418 -1.5115999 -0.24654076
-0.34081471 -1.514779 -0.245915
-0.33810124 -1.5113388 -0.24528927
-0.32820219 -1.513519 -0.24528927
-0.31777528 -1.5197793 -0.245915
-0.30677962 -1.515991 -0.2449764
-0.29501569 -1.516312 -0.24466354
-0.28270432 -1.5106175 -0.24341206
-0.25220853 -1.5120019 -0.24278632
-0.19849092 -1.519987 -0.24278632
-1.3054457 -1.5059853 -0.24471366
-0.45972532 -1.5036936 -0.2490437
-0.43863475 -1.5058659 -0.24841796
-0.42556137 -1.5014014 -0.24716648
-0.38250306 -1.5088689 -0.24654076
-0.36140385 -1.5099992 -0.245915
-0.34996071 -1.5086368 -0.24528927
-0.29482311 -1.5082991 -0.24341206
-0.2710149 -1.5047303 -0.24216059
-1.3185486 -1.4998168 -0.24520114
-0.45845947 -1.4958175 -0.24779223
-0.43291414 -1.4910719 -0.245915
-0.41230765 -1.4928027 -0.24528927
-0.40187621 -1.4956447 -0.24528927
-0.39168617 -1.4983456 -0.24528927
-0.35550466 -1.4910988 -0.24278632
-1.3208021 -1.4819154 -0.2437387
-0.49066141 -1.4897262 -0.24841796
-0.4871546 -1.4825618 -0.24716648
-0.47791618 -1.4876404 -0.24747935
-0.46574652 -1.4852858 -0.24654074
-0.44409221 -1.4877808 -0.245915
-0.4102163 -1.4892813 -0.24466354
-0.39878681 -1.4882926 -0.24403779
-0.34445691 -1.4896349 -0.24216059
-0.54209644 -1.4717895 -0.24841796
-0.53314793 -1.4792548 -0.2490437
-0.52043808 -1.4753981 -0.24779223
-0.50754946 -1.4757041 -0.24716648
-0.49611741 -1.4733348 -0.24622788
-0.5834291 -1.4601548 -0.2490437
-0.56157058 -1.4644696 -0.24841796
-0.53970599 -1.4684592 -0.24779223
-0.52676713 -1.4647561 -0.24654076
-0.51521736 -1.464671 -0.245915
-0.50497246 -1.4640561 -0.24528927
-0.59473658 -1.4577194 -0.24935657
-0.5829798 -1.4560795 -0.24841796
-0.57135743 -1.456436 -0.24779223
-0.560013 -1.4566038 -0.24716648
-0.54843837 -1.4567806 -0.24654076
-0.62472713 -1.4429684 -0.2490437
-0.61362779 -1.4477233 -0.2490437
-0.60198778 -1.4461849 -0.24810509
-0.56746012 -1.449477 -0.24654076
-0.65545404 -1.4336183 -0.24966943
-0.64481324 -1.4341052 -0.2490437
-0.63218874 -1.4353989 -0.24841796
-0.62215233 -1.4397775 -0.24841796
-0.67640054 -1.4238553 -0.24966943
-0.66211098 -1.4218445 -0.24841796
-0.60691649 -1.4291124 -0.245915
-0.67202091 -1.4171876 -0.24841796
-0.70368743 -1.4061527 -0.2490437
-0.69000018 -1.4041208 -0.24779223
-0.68116415 -1.4084284 -0.24779223
-0.67821783 -1.4054643 -0.24716648
-0.65475172 -1.4034806 -0.24528927
-0.73213232 -1.3915545 -0.2490437
-0.71108508 -1.3979952 -0.24841796
-0.70847398 -1.3904581 -0.24716648
-0.7190119 -1.3894881 -0.24779223
-0.77335703 -1.3736085 -0.24966943
-0.76111418 -1.3759167 -0.2490437
-0.79127067 -1.3633679 -0.24966943
-0.76659042 -1.3638161 -0.24779223
-0.74465305 -1.3669257 -0.24654076
-0.78848815 -1.3558463 -0.24841796
-0.75226367 -1.3582377 -0.245915
-0.81964922 -1.3464979 -0.24966943
-0.80007613 -1.3352425 -0.24654076
-0.79490894 -1.3245211 -0.24466354
-0.8659122 -1.3172234 -0.24966943
-0.14553106 -1.2539558 -0.24538037
-0.10164213 -1.2523649 -0.24423555
-0.093150288 -1.2549937 -0.24461715
-0.014842044 -1.250505 -0.24309067
-0.25050998 -1.2412727 -0.24614362
-0.22311328 -1.2424994 -0.24538037
-0.19802251 -1.2467442 -0.24538037
-0.10977468 -1.2497075 -0.24385393
0.045826383 -1.2497531 -0.24309067
0.1163874 -1.2451655 -0.24309067
0.12507746 -1.2443225 -0.24309067
0.13245903 -1.2435585 -0.24309067
-0.27494785 -1.2320665 -0.24538037
-0.25825787 -1.2356726 -0.24538037
-0.22232017 -1.2306733 -0.24309067
-0.18700778 -1.236532 -0.24309067
-0.17628126 -1.2381004 -0.24309067
0.15769318 -1.2326945 -0.2415642
-0.30269846 -1.2295882 -0.24614362
-0.29030618 -1.2204678 -0.24385393
-0.26596698 -1.2260021 -0.24385393
-0.23018134 -1.2252322 -0.24232745
-0.22796409 -1.2216526 -0.2415642
-0.37472212 -1.2116343 -0.24652523
-0.35243711 -1.2162654 -0.24614362
-0.34415007 -1.2186362 -0.24614362
-0.3253898 -1.2156512 -0.24461715
-0.3143912 -1.2104301 -0.24309067
-0.30913192 -1.2198869 -0.24461715
0.23446634 -1.2164228 -0.24080098
-0.38590121 -1.201942 -0.24538037
-0.37750068 -1.2046068 -0.24538037
-0.36844993 -1.2074058 -0.24538037
-0.35130623 -1.2084165 -0.24461715
-0.30518356 -1.2087351 -0.24232745
0.29234788 -1.2038238 -0.24080098
-0.40181002 -1.1967176 -0.24538037
-0.39202601 -1.1937606 -0.24423555
-0.35644299 -1.1987208 -0.24309067
0.29979181 -1.1979444 -0.24003772
-0.46326932 -1.1827317 -0.24690685
-0.44560635 -1.1874022 -0.24652523
-0.43568802 -1.184804 -0.24538037
-0.40970993 -1.1898842 -0.24461715
0.33312348 -1.1891067 -0.24003772
-0.47374678 -1.1743345 -0.24614362
-0.45239383 -1.1785263 -0.24538037
-0.44996122 -1.1752537 -0.24461715
-0.42341787 -1.1767329 -0.24309067
-0.52108705 -1.1627262 -0.2476701
-0.49356142 -1.1661521 -0.24614362
-0.48526639 -1.1675022 -0.24576199
-0.53725958 -1.1542596 -0.24747929
-0.5251146 -1.1501304 -0.24576201
-0.52591735 -1.1497635 -0.24576201
-0.51546532 -1.148034 -0.24461715
-0.57785833 -1.1355807 -0.2476701
-0.5684427 -1.1381288 -0.24728847
-0.59437472 -1.1292428 -0.2480517
-0.6077193 -1.11765 -0.24728847
-0.59853774 -1.1181422 -0.24652523
-0.63601828 -1.094986 -0.24614362
-0.6283586 -1.0993993 -0.24614362
-0.65990633 -1.0853555 -0.24690685
-0.68441397 -1.0747285 -0.2476701
-0.70009601 -1.0645794 -0.2476701
-0.69190007 -1.0699244 -0.2476701
-0.72280002 -1.0516798 -0.2480517
-0.70751113 -1.0596659 -0.2476701
-0.73346657 -1.037063 -0.24690685
-0.73426592 -1.0220273 -0.24461715
-1.2861527 -0.88031745 -0.24685362
-0.92988187 -0.87108183 -0.2476701
-0.93533671 -0.86522192 -0.2476701
-0.92640972 -0.8690443 -0.24690685
-1.3059598 -0.8542707 -0.24716648
-0.94180375 -0.85817802 -0.2476701
-0.96179235 -0.84168893 -0.24843332
-0.95354635 -0.84511125 -0.2476701
-0.94485098 -0.84895796 -0.24690685
-0.96525311 -0.83171523 -0.2476701
-0.96761268 -0.8229208 -0.24690685
-1.0016216 -0.79387593 -0.24843332
-0.98895949 -0.7940079 -0.24652523
-0.97730309 -0.79593372 -0.24499875
-1.0066407 -0.78590775 -0.24824251
-1.4694701 -0.5705601 -0.24966943
1.9839605 -0.31564844 -0.24666359
1.978213 -0.3009426 -0.2456886
1.9698704 -0.24536033 -0.2437387
2.004828 -0.21991847 -0.24763852
1.9589212 -0.2010527 -0.24178879
1.980038 -0.18926091 -0.2442262
1.0663693 -0.16851474 -0.24924576
1.0715549 -0.13157041 -0.24924576
1.9607139 -0.13332424 -0.24130133
2.0091078 -0.12323426 -0.24715105
2.0290079 -0.12303312 -0.24958843
1.9981012 -0.10716406 -0.2456886
1.9709586 -0.093637593 -0.24227627
1.9913992 -0.080679111 -0.24471366
1.9621769 -0.065092802 -0.24105757
1.0742108 -0.056673005 -0.24834597
1.96455 -0.052129786 -0.24130133
1.0717444 -0.011597843 -0.24744615
1.9612406 -0.010953749 -0.24081384
1.0717993 -0.0041154334 -0.24744615
0.92723095 0.010357798 -0.2484663
1.9612054 0.016087843 -0.24081384
1.9769293 0.029676298 -0.24276376
1.0762253 0.055460919 -0.24879587
1.0714569 0.070227176 -0.24789605
1.0664867 0.084871143 -0.24699625
1.9594195 0.085208528 -0.24081384
1.9872445 0.085027739 -0.2442262
1.077517 0.093323454 -0.24969566
1.9786718 0.098504432 -0.24325122
0.92119914 0.10609767 -0.2484663
1.068372 0.10739155 -0.24789605
1.9540751 0.11232943 -0.24032637
1.9779359 0.11231577 -0.24325122
1.072469 0.12389925 -0.24924576
1.965129 0.12673524 -0.24178879
1.9810658 0.12637344 -0.2437387
0.91683853 0.13882275 -0.2484663
1.0673573 0.13369624 -0.24834596
1.9879571 0.14214942 -0.24471366
1.9959761 0.14132336 -0.2456886
0.91375768 0.15783381 -0.2484663
1.9829582 0.15571465 -0.2442262
2.0107737 0.15648663 -0.24763852
1.9699556 0.16853921 -0.24276376
2.0017207 0.16984837 -0.24666359
0.91028273 0.17677633 -0.2484663
1.9884974 0.18411724 -0.24520114
1.9925787 0.18309231 -0.2456886
2.0228941 0.19977261 -0.24958843
0.90502715 0.20196626 -0.2484663
1.0581399 0.20414899 -0.24879587
2.0187685 0.20114411 -0.24910097
2.0096056 0.21263693 -0.248126
0.89923304 0.22637254 -0.2484663
2.0078738 0.22841363 -0.248126
1.0406532 0.23089783 -0.24609646
1.0373707 0.24522418 -0.24609646
1.990464 0.24052054 -0.24617608
2.0103831 0.24114682 -0.24861349
1.9572755 0.25003797 -0.24227627
1.9732038 0.25067389 -0.2442262
0.88610113 0.273278 -0.2484663
1.0301193 0.27409342 -0.24609646
1.0395082 0.28418222 -0.24879587
0.87718934 0.30067158 -0.2484663
1.01998 0.30969936 -0.24609646
1.0275103 0.30494779 -0.24744615
0.8682819 0.32550135 -0.2484663
0.87212771 0.32624885 -0.24950157
0.86621952 0.33095056 -0.2484663
1.0085502 0.34510776 -0.24609646
0.82717359 0.41910434 -0.2484663
0.82766163 0.42663956 -0.24950157
0.81499439 0.44232184 -0.2484663
0.79938942 0.46993738 -0.2484663
0.77865779 0.50354409 -0.2484663
0.76429451 0.52508897 -0.2484663
0.73938656 0.54671806 -0.24639574
0.73922223 0.5534116 -0.24743101
0.74492097 0.55869293 -0.24950157
0.73704773 0.56903929 -0.24950157
0.729536 0.57863832 -0.24950157
0.72300929 0.58472019 -0.24915648
0.70390874 0.59169722 -0.24639574
0.69557869 0.60146773 -0.24639574
0.70858127 0.60411716 -0.24950157
0.69577438 0.61882389 -0.24950157
0.67633879 0.62301588 -0.24639574
0.68190819 0.62266773 -0.24743101
0.67878091 0.63741785 -0.24950157
0.65260667 0.6478408 -0.24639574
0.66305161 0.64547479 -0.24794865
0.6603747 0.65646803 -0.24950157
0.64844304 0.66286212 -0.2484663
0.62455225 0.67492783 -0.24639574
0.6345368 0.67618608 -0.2484663
0.64214087 0.6743145 -0.24950157
0.62763846 0.68783355 -0.24950157
0.63302094 0.6828832 -0.24950157
0.61067367 0.6978125 -0.2484663
0.61382931 0.70018464 -0.24950157
0.59353918 0.71746516 -0.24950157
0.57598346 0.72671014 -0.2484663
0.5557273 0.74231511 -0.2484663
0.53544426 0.75707597 -0.2484663
0.54230928 0.75693172 -0.24950157
0.5032717 0.77883387 -0.2484663
0.51342332 0.77217948 -0.2484663
0.4584491 0.8060329 -0.2484663
0.42443743 0.82444978 -0.2484663
0.24546702 0.89420938 -0.2484663
0.18280944 0.90909034 -0.2484663
0.55293334 0.90905809 -0.24564654
0.52652895 0.92460215 -0.24564654
0.46294096 0.96234965 -0.24654636
0.39020652 0.99825317 -0.24744615
0.34714872 1.0099103 -0.24654636
0.34897193 1.017526 -0.24834597
0.32770669 1.0225263 -0.24789605
0.26931706 1.0354059 -0.24699625
0.27855334 1.0410306 -0.24879587
0.18169411 1.0562943 -0.24744615
0.21407588 1.052194 -0.24789606
0.25046325 1.0521504 -0.24969566
0.14595869 1.0696901 -0.24924576
-0.80312121 -2.6170862 -0.23950398
-0.78425825 -2.6165609 -0.23898104
-0.76096213 -2.6006033 -0.2370636
-0.759808 -2.6050923 -0.23741224
-0.74060369 -2.5981882 -0.23636638
-0.73661011 -2.5910389 -0.23566914
1.4458536 -2.2538784 -0.23427464
1.470253 -2.2570853 -0.23566914
1.4855824 -2.2470255 -0.23566914
1.5101162 -2.2498333 -0.2370636
1.4348929 -2.2325029 -0.23218289
1.4613327 -2.2391164 -0.233926
1.4831414 -2.2390838 -0.23497188
1.5031844 -2.2352884 -0.23566914
1.5168109 -2.2260644 -0.23566914
1.5097662 -2.2115755 -0.23427464
1.5232477 -2.2023118 -0.23427464
1.5435481 -2.1978772 -0.23497188
1.5657929 -2.1967826 -0.23601775
1.5877142 -2.1957605 -0.2370636
1.513821 -2.1846054 -0.23253153
1.5355314 -2.1840296 -0.23357739
1.5935754 -2.1717725 -0.23566914
1.5461123 -2.1667693 -0.23288015
1.5880123 -2.161026 -0.23462325
1.5612015 -2.1559227 -0.23288015
1.6059419 -2.1576784 -0.23532049
1.608959 -2.1305149 -0.23357739
1.6378694 -2.136055 -0.23549482
1.6605588 -2.136157 -0.23671499
1.5840048 -2.124331 -0.23183426
1.6060091 -2.1227546 -0.23288015
1.6651931 -2.1122873 -0.23532049
1.6375721 -2.103554 -0.23322876
1.6571569 -2.0983245 -0.233926
1.6667826 -2.0804849 -0.23322876
1.6769501 -2.0671699 -0.23288015
1.7014685 -2.0677199 -0.23427464
1.7209688 -2.0619094 -0.23497188
1.6737272 -2.0595205 -0.23218289
1.6931338 -2.0539353 -0.23288015
1.7125436 -2.0481789 -0.23357739
1.7301723 -2.0437622 -0.23427464
1.7216461 -2.0300956 -0.23288015
1.7852943 -1.9904419 -0.233926
1.7937843 -1.9720345 -0.23322876
1.853336 -1.9272469 -0.233926
1.8472712 -1.8942915 -0.23148565
1.9760902 -1.762489 -0.23165996
0.84112692 -1.7563534 -0.23910768
0.84836668 -1.7440422 -0.23813272
0.85075814 -1.7450855 -0.23837645
0.87861931 -1.7401251 -0.23935141
1.9850491 -1.7463652 -0.23131134
0.85875988 -1.734519 -0.23764524
0.86292034 -1.7391036 -0.23837645
0.87531412 -1.7373455 -0.23886393
1.9971926 -1.7324647 -0.23131134
0.88092566 -1.7166762 -0.23691402
0.88847184 -1.703833 -0.23593907
0.89818907 -1.6942382 -0.23545158
0.88260323 -1.6889821 -0.23398916
0.89407915 -1.6829354 -0.23398916
0.91146773 -1.6871318 -0.23545158
0.90434301 -1.6774424 -0.23398916
0.91940111 -1.6737678 -0.23447664
0.92080259 -1.6797917 -0.23520786
0.92864197 -1.6663862 -0.23423289
0.93106359 -1.6673084 -0.23447664
0.93847239 -1.6540263 -0.23350169
0.94025272 -1.6598626 -0.23423289
0.9539634 -1.6543128 -0.23447664
0.96749669 -1.6510379 -0.23496412
0.98495191 -1.6568711 -0.23667029
0.94884652 -1.648097 -0.23350169
0.96233392 -1.6448594 -0.23398916
0.97899932 -1.6442435 -0.23496412
0.99210322 -1.6433306 -0.23569533
0.9873721 -1.6322731 -0.23423289
1.000438 -1.6312878 -0.23496412
0.9997825 -1.6270317 -0.23447664
1.0097028 -1.6208941 -0.23447664
1.012168 -1.6216962 -0.23472038
1.0319673 -1.6280035 -0.23667029
1.045173 -1.62428 -0.23715776
1.0231168 -1.6171606 -0.23496412
1.0467147 -1.6019877 -0.23496412
1.0727184 -1.5942719 -0.23593906
1.0534836 -1.5880244 -0.23398916
1.0842394 -1.5864596 -0.23593907
1.1120372 -1.5816818 -0.2374015
1.0907624 -1.5723275 -0.23496412
1.1017127 -1.5646741 -0.23496412
1.1161342 -1.5641847 -0.23593907
1.1257824 -1.5523533 -0.23545158
1.1399449 -1.5518467 -0.23642655
1.1010677 -1.5407939 -0.23252673
1.1174432 -1.5436871 -0.23398916
1.1447037 -1.5335023 -0.23496412
1.1577786 -1.5286385 -0.23545158
1.1660032 -1.5173703 -0.23496412
1.176568 -1.5091932 -0.23496412
1.2233033 -1.4818766 -0.23593907
1.2555979 -1.4176987 -0.23252673
0.85412055 -1.2298341 -0.23715468
0.33309859 -1.1850355 -0.2392745
0.91964269 -1.1615492 -0.23465173
0.41089663 -1.1520225 -0.23774803
0.44512305 -1.1434499 -0.23851125
0.48456091 -1.1273035 -0.23851125
0.53537267 -1.1062531 -0.23889288
0.56942874 -1.0869054 -0.23851125
0.58249056 -1.0754983 -0.23774803
0.60294461 -1.059651 -0.23698479
0.67503893 -1.0152463 -0.23698479
0.68122804 -1.0111037 -0.23698479
0.73841578 -0.9602384 -0.23545831
1.9508466 0.098484501 -0.23983888
2.9604981 -3.1680872 -0.22724274
2.9833622 -3.1548169 -0.22755675
2.9749017 -3.1021988 -0.22525398
2.9297986 -3.0927644 -0.22326522
2.9998095 -3.0836945 -0.22546332
3.0787604 -3.0787604 -0.22818479
3.1115563 -3.0684109 -0.22902218
2.9374821 -3.0578315 -0.2222185
3.0156541 -3.0569897 -0.22504464
3.007962 -3.0449374 -0.22431193
2.9587579 -3.03725 -0.2222185
3.0951478 -3.0109508 -0.2263007
3.0003531 -2.9961667 -0.2222185
3.0439665 -2.9975696 -0.22389325
3.0485411 -2.9614723 -0.22274184
3.0930319 -2.9671471 -0.22462595
3.1136708 -2.9454818 -0.22462595
3.0604882 -2.931828 -0.22211383
3.2368062 -2.935986 -0.22902218
3.1312373 -2.9209478 -0.2244166
3.1750717 -2.9206512 -0.22609136
3.0755806 -2.9043674 -0.22169513
3.0987053 -2.8855474 -0.22190447
3.2269468 -2.8872509 -0.22692874
3.1771853 -2.8768561 -0.22462595
3.121717 -2.8665459 -0.22211383
3.1549842 -2.8179104 -0.22169513
3.1865711 -2.8063765 -0.22253251
3.2666543 -2.7624917 -0.22420727
3.2417245 -2.6989863 -0.22106709
3.3700249 -2.6548064 -0.22483528
3.3126807 -2.6049507 -0.22085775
3.3506169 -2.6018157 -0.22232316
3.330786 -2.5817606 -0.22085775
3.371871 -2.5807889 -0.22253251
3.421695 -2.5812421 -0.22462595
3.3550768 -2.5632949 -0.22127645
3.4268093 -2.5477583 -0.22378856
3.4093437 -2.5310788 -0.22253251
3.4195149 -2.4698629 -0.22106709
3.4399288 -2.4482462 -0.22127645
3.4536662 -2.4218783 -0.22106709
3.4622736 -2.3920319 -0.22054374
3.4706333 -2.3621836 -0.22002037
2.0859156 -1.5919204 -0.22956821
2.1060662 -1.5618224 -0.22939391
2.1104839 -1.542379 -0.22869666
2.2296436 -1.3180823 -0.22660492
3.3568649 -2.4201567 -0.21688022
3.3732607 -2.3972511 -0.21688022
3.3964586 -2.378226 -0.21729892
3.3948944 -2.3419807 -0.21614751
3.484973 -2.3373926 -0.2199157
3.3995981 -2.3103645 -0.21541482
3.4995399 -2.3119056 -0.21981104
3.4289219 -2.2954633 -0.21625218
3.5151954 -2.2880316 -0.21981104
3.4415293 -2.2692704 -0.21604285
3.453546 -2.2436159 -0.2158335
3.5041792 -2.2461901 -0.2181363
3.7351789 -1.7488908 -0.21614751
3.7400386 -1.7194349 -0.21572883
