# .PCD v0.7 - Point Cloud Data file format
VERSION 0.7
FIELDS x y z
SIZE 4 4 4
TYPE F F F
COUNT 1 1 1
WIDTH 1391
HEIGHT 1
VIEWPOINT 0 0 0 1 0 0 0
POINTS 1391
DATA ascii
-0.39701781 -0.86357582 -0.25467795
0.37488148 -0.86921185 -0.25364268
0.40298074 -0.86933929 -0.2567485
-1.3897299 -0.85496753 -0.25842977
0.40589124 -0.85944605 -0.25467795
-1.9128817 -0.84767312 -0.25690058
-1.3971378 -0.84280753 -0.25842977
-1.389493 -0.84018165 -0.25717828
-1.3731681 -0.84230101 -0.25514466
-0.9753927 -0.8469919 -0.25110465
-0.47430265 -0.84588939 -0.25985435
-0.460159 -0.84927404 -0.25881904
-0.45706579 -0.842161 -0.2567485
0.42783597 -0.84440619 -0.25364268
0.43460467 -0.84673196 -0.25502303
0.44137824 -0.8417722 -0.25467795
0.45441508 -0.84358758 -0.2567485
0.67951435 -0.84393823 -0.25014558
0.68588835 -0.84128195 -0.25059548
-1.3855268 -0.83910483 -0.25655255
-0.48922732 -0.8328681 -0.25881904
0.46578446 -0.83736527 -0.2567485
0.69123137 -0.83436847 -0.25014558
-1.3879572 -0.82738888 -0.25592682
-0.49304962 -0.82611483 -0.25778377
-0.48603427 -0.8257814 -0.2567485
0.46528852 -0.82879537 -0.25467795
0.47667143 -0.82230139 -0.25467795
0.49558327 -0.82233739 -0.25726613
-0.52353328 -0.81174231 -0.25881904
-0.51856482 -0.81492531 -0.25881904
0.48398805 -0.81576538 -0.25416031
0.50315028 -0.81546539 -0.2567485
0.71483094 -0.81683224 -0.25059548
-1.9337361 -0.80929607 -0.25738806
-0.54803872 -0.80009085 -0.25985435
-0.53537738 -0.80397987 -0.25881904
-1.0578444 -0.79165667 -0.25682893
-1.0432559 -0.79144371 -0.25453922
-0.55970943 -0.79197049 -0.25985435
-0.54641145 -0.7965219 -0.25881904
0.50861168 -0.79836053 -0.25364268
0.52169162 -0.79450178 -0.25467795
0.53637218 -0.7940082 -0.2567485
-1.9594433 -0.78848577 -0.25933796
-1.0696653 -0.78891349 -0.25835541
-1.0505334 -0.78504199 -0.25492084
-1.021369 -0.78613472 -0.25053221
0.52011406 -0.78165013 -0.25157213
0.54245383 -0.78986585 -0.2567485
-1.9538199 -0.77041841 -0.25787556
-1.4129316 -0.77580285 -0.25530109
-1.4078701 -0.77270615 -0.25436246
-1.0686588 -0.77699637 -0.25682893
-1.0544076 -0.77652484 -0.25453922
-0.57488334 -0.77381015 -0.25830141
0.56551909 -0.77111959 -0.25623086
-1.4239972 -0.76786482 -0.25623968
-1.4141697 -0.76527685 -0.25467533
-1.0768638 -0.7655704 -0.25682893
-1.0683405 -0.7640112 -0.25530246
-1.0502696 -0.76222557 -0.25224951
-0.82060069 -0.76015049 -0.2582438
-0.812433 -0.76319259 -0.25734401
-0.80453157 -0.76587558 -0.25644422
-0.60238248 -0.76001781 -0.25985435
-0.58179575 -0.76620972 -0.25778377
-0.56699032 -0.76764363 -0.25571322
0.5417363 -0.76682293 -0.25157213
0.55157906 -0.76930225 -0.25364268
0.56739223 -0.76734662 -0.25571322
0.76360512 -0.76868641 -0.25014558
-1.4236912 -0.75587493 -0.25530109
-1.4165157 -0.75254112 -0.2540496
-1.0954652 -0.75612605 -0.25873703
-1.0767256 -0.75898373 -0.25606567
-0.80443817 -0.75462556 -0.2546446
-0.60529351 -0.75769538 -0.25985435
-0.5928337 -0.75770169 -0.25778377
0.56743693 -0.75768113 -0.25364268
0.78027964 -0.75456071 -0.25059548
-1.4474525 -0.74452859 -0.25780404
-1.4317178 -0.74912071 -0.25592682
-1.429194 -0.74541879 -0.25530109
-1.1021526 -0.7428515 -0.25835541
-1.0904585 -0.74609345 -0.25682893
-0.83646953 -0.7426526 -0.2582438
-0.82810783 -0.74615532 -0.25734401
-0.81319749 -0.74229038 -0.25419468
-0.80682576 -0.74634445 -0.25374478
-0.6237576 -0.74257541 -0.25985435
-0.6108852 -0.74821919 -0.25881904
-0.60335517 -0.74935049 -0.25778377
0.58456516 -0.74700058 -0.25416031
-1.4311676 -0.7329964 -0.25467533
-1.4232428 -0.73113376 -0.25342387
-1.1137252 -0.73967683 -0.25988188
-0.84176254 -0.73664784 -0.2582438
-0.8353858 -0.7320978 -0.25644422
-0.6246556 -0.7342273 -0.25830141
0.5955444 -0.73578614 -0.25364268
0.60098261 -0.7363525 -0.25467795
-1.4468369 -0.72831595 -0.25655255
-1.438512 -0.72727513 -0.25530109
-1.109004 -0.7254355 -0.25759214
-1.0969888 -0.72939014 -0.25606567
-0.86161029 -0.72246456 -0.25959352
-0.85060763 -0.72341216 -0.2577939
-0.83716905 -0.72262365 -0.25531945
-0.63866282 -0.72979558 -0.25985435
-0.62497067 -0.72378004 -0.25623086
0.60649884 -0.72678101 -0.25364268
0.61439532 -0.72012758 -0.25364268
-1.4554273 -0.71994942 -0.25717828
-1.440515 -0.71445137 -0.25467533
-1.4364779 -0.71369892 -0.2540496
-1.4247857 -0.71939915 -0.25279811
-0.84767431 -0.71178758 -0.25554439
-0.61013371 -0.71614498 -0.25208977
0.61422741 -0.71008468 -0.25157213
-1.4533113 -0.70631719 -0.25592682
-1.4454677 -0.70437759 -0.25467533
-1.1301203 -0.70700061 -0.25911862
-1.12481 -0.70067734 -0.25759214
-0.86344582 -0.70496213 -0.25734401
-0.84899235 -0.70259774 -0.25441962
-0.83081561 -0.70757979 -0.25194517
0.6186769 -0.70621139 -0.25157213
0.63512641 -0.70451462 -0.25416031
-1.1249988 -0.69291615 -0.25682893
-1.1172926 -0.69789094 -0.25606567
-0.8781485 -0.69601232 -0.25869372
-0.8621527 -0.69418013 -0.25554439
-0.85638565 -0.69820249 -0.2550945
0.64799732 -0.69004703 -0.25364268
-1.4439458 -0.6893456 -0.25342387
-1.1337651 -0.68609172 -0.25759214
-1.1229798 -0.6887024 -0.25606567
-0.87276667 -0.68237042 -0.25576934
-0.86087245 -0.68329817 -0.25374478
-0.85200602 -0.68503058 -0.25239509
0.64330459 -0.68385291 -0.25157213
0.84825325 -0.68347692 -0.25149527
-1.4704262 -0.67943227 -0.25655255
-1.4640782 -0.67432988 -0.25530109
-1.4465201 -0.67929244 -0.253111
-1.1267211 -0.67112577 -0.25492084
-1.1044219 -0.67387748 -0.25148627
-0.89361042 -0.67927116 -0.25914362
-0.88310176 -0.67055374 -0.25599429
-0.87750846 -0.6762619 -0.25576937
0.66289639 -0.6757468 -0.25364268
-1.47595 -0.66734767 -0.25655255
-1.457144 -0.66099024 -0.25342387
-1.1336515 -0.66324884 -0.25530246
-1.1289908 -0.66343498 -0.25453922
-1.1147976 -0.66428936 -0.25224951
0.66203189 -0.66573972 -0.25157213
0.67667174 -0.6619522 -0.25364268
-1.4688272 -0.65427148 -0.25467533
-1.1586201 -0.65925807 -0.25911862
-1.1474721 -0.65105891 -0.25644732
-1.115907 -0.65469885 -0.25148627
-0.91098636 -0.65244287 -0.25869372
-0.90223944 -0.65623719 -0.25756896
-0.89237809 -0.6581583 -0.25599429
-0.88280082 -0.65634698 -0.25396973
-0.8796156 -0.65899485 -0.25374478
0.68509918 -0.65508431 -0.25398776
-1.4851238 -0.64667499 -0.25655255
-1.4733591 -0.64400119 -0.25467533
-1.462517 -0.64901513 -0.25342387
-1.1644423 -0.64891905 -0.25911862
-1.1460631 -0.64156365 -0.25530246
-0.90486193 -0.64424109 -0.25644422
-0.72509444 -0.64399529 -0.25985435
-0.71770978 -0.646456 -0.25881904
0.68458223 -0.6425283 -0.25157213
0.69472235 -0.64298213 -0.25364268
-1.4787025 -0.63163561 -0.25467533
-1.1612787 -0.6384185 -0.25759214
-1.1469646 -0.63185322 -0.25453922
-1.1328007 -0.63310087 -0.25224951
-0.91029638 -0.63314414 -0.25599429
-0.90716571 -0.63591629 -0.25576934
-0.7335726 -0.63432091 -0.25985435
-0.72611028 -0.63700598 -0.25881904
-1.509088 -0.62046111 -0.25842977
-1.4844093 -0.62322491 -0.25498819
-1.4669262 -0.62902856 -0.25279811
-1.1582524 -0.62757158 -0.25606567
-1.144842 -0.62756234 -0.25377598
-0.92022908 -0.62210548 -0.25644422
-0.91657233 -0.62516636 -0.25614429
0.70792592 -0.62841558 -0.25364268
-1.1533859 -0.61171782 -0.25377598
-1.1434042 -0.61373055 -0.25224951
-1.1353704 -0.61210126 -0.25072303
-0.93534321 -0.61347157 -0.2582438
-0.92557645 -0.61588156 -0.25666916
0.70621139 -0.61867684 -0.25157213
0.71690083 -0.61815739 -0.25364268
-1.4944291 -0.60409218 -0.25530109
-1.4755658 -0.60848594 -0.25279811
-1.1634234 -0.60951662 -0.25530246
-1.1537776 -0.60254228 -0.25301275
-1.1387713 -0.60575074 -0.25072303
-0.93173361 -0.60115188 -0.25599429
-0.92864788 -0.60411215 -0.25576934
0.72535563 -0.60821432 -0.25364268
-1.4804035 -0.59661949 -0.25279811
-1.1728539 -0.59116691 -0.25530246
-1.1608253 -0.59747994 -0.25377598
-1.1547227 -0.59217381 -0.25224951
-0.94633019 -0.59363073 -0.25790638
-0.93323302 -0.59339124 -0.25531945
-0.76084846 -0.59508175 -0.25881904
-1.4878474 -0.58863032 -0.25342387
-1.1782005 -0.58486575 -0.25568408
-1.1652132 -0.5859524 -0.25352156
-0.95941329 -0.58264476 -0.25914362
-0.94841886 -0.58381462 -0.25711906
-0.7717495 -0.58727723 -0.25985435
0.73548865 -0.58356839 -0.25157213
-1.4849048 -0.57446641 -0.25217238
-0.9567669 -0.57193309 -0.25734401
-0.94552195 -0.57172668 -0.2550945
-0.77977335 -0.5765807 -0.25985435
0.74406481 -0.57259333 -0.25157213
-1.1810893 -0.56550312 -0.25453922
-1.1704018 -0.5695793 -0.25301275
-1.1627469 -0.56736106 -0.25148627
-0.96547997 -0.56678247 -0.25846875
-0.95411777 -0.56493831 -0.25599429
-0.9460426 -0.56328368 -0.25419468
-0.93815732 -0.56883979 -0.25329489
-0.78500223 -0.56283581 -0.25881904
0.75169241 -0.56254244 -0.25157213
-1.1924572 -0.55985743 -0.25606567
-1.1882201 -0.55964077 -0.25530246
-0.97182447 -0.55386955 -0.2582438
-0.96430349 -0.55718625 -0.25711906
-0.95989025 -0.55508709 -0.25599429
-0.79206812 -0.55957115 -0.25985435
-1.1819782 -0.54514968 -0.25301275
-1.1777477 -0.54494435 -0.25224951
-0.97226804 -0.5451653 -0.25734401
-0.96412462 -0.54769897 -0.25599429
-1.2110033 -0.53816104 -0.25759214
-1.1959072 -0.53345311 -0.25453922
-1.185427 -0.53760886 -0.25301275
-0.98594767 -0.53243309 -0.25869372
-0.96594453 -0.53381044 -0.25479457
-0.81065011 -0.53229523 -0.25985435
-1.2220093 -0.52274448 -0.25835541
-1.2039334 -0.52498484 -0.25530246
-1.1924082 -0.52194208 -0.25301275
-0.97994202 -0.52302039 -0.25644422
-0.96707547 -0.52431417 -0.25396973
-0.95898652 -0.52895236 -0.25284499
-1.2285286 -0.51743531 -0.25911862
-1.1996307 -0.51515406 -0.25377598
-0.99227381 -0.51632506 -0.2582438
-0.97664183 -0.51397401 -0.25479457
0.78553152 -0.51423323 -0.25157213
-1.2356333 -0.5002321 -0.25911862
-1.2287469 -0.50670409 -0.25835541
-1.2146777 -0.50985533 -0.25606567
-1.0002534 -0.50504541 -0.25869372
-0.9906804 -0.50238341 -0.25644422
-0.98608041 -0.50710571 -0.25599432
-0.81853318 -0.50553632 -0.25778377
-1.2325153 -0.49746829 -0.25835541
-1.0107107 -0.49273849 -0.25959352
-1.0002636 -0.49631763 -0.2577939
-0.99625385 -0.49562877 -0.25689411
-0.98471308 -0.49473155 -0.25441962
0.79949754 -0.49223897 -0.25157213
-1.2460725 -0.48457101 -0.25988188
-1.0050863 -0.481987 -0.25734401
-0.99968964 -0.48866177 -0.25689411
-0.83592552 -0.48398474 -0.25881904
-1.2420861 -0.47306523 -0.25835541
-1.0030959 -0.47255602 -0.25599429
-0.82321501 -0.4750919 -0.25467795
-1.2385634 -0.46012574 -0.25682893
-1.0198781 -0.46414039 -0.25869372
-1.0081388 -0.46636075 -0.25644422
-0.82542622 -0.46339712 -0.25364268
-1.2559472 -0.45836905 -0.25988188
-1.249126 -0.45415106 -0.25835541
-1.2306423 -0.45889443 -0.25530246
-1.0233724 -0.45638403 -0.25869372
-1.0133456 -0.45967421 -0.25689411
0.82211447 -0.45345721 -0.25157213
-1.259665 -0.44805118 -0.25988188
-1.2369294 -0.44166771 -0.25530246
-1.0232364 -0.44704112 -0.2577939
-1.019042 -0.44690397 -0.25689411
-0.85195976 -0.4469097 -0.25778377
-1.2657228 -0.43064088 -0.25988188
-1.2589772 -0.43817586 -0.25911862
-1.2473967 -0.43561035 -0.25682893
-1.0215914 -0.43111712 -0.25599429
-1.013491 -0.43521911 -0.25464457
-1.020975 -0.42248434 -0.2550945
-1.014932 -0.42684659 -0.25419468
0.83743906 -0.42448959 -0.25157213
-1.2711067 -0.4144797 -0.25988188
-1.0394504 -0.41322759 -0.2582438
-1.0275112 -0.41681135 -0.25599429
-0.87385219 -0.41157633 -0.25881904
-1.2664863 -0.40321356 -0.25835541
-1.0445513 -0.40557426 -0.25869372
-1.0328962 -0.40594113 -0.25621927
-0.88296151 -0.4010869 -0.25985435
0.84776646 -0.40345612 -0.25157213
-1.2734337 -0.39419344 -0.25911862
-1.2655892 -0.39297608 -0.25759214
0.85167444 -0.39515343 -0.25157213
-1.2684357 -0.38368824 -0.25759214
-1.2520591 -0.36992654 -0.25377598
-1.2449124 -0.36639771 -0.25224951
-1.2432916 -0.35791752 -0.25148627
-0.89778441 -0.35636485 -0.25881904
-0.90697938 -0.33226657 -0.25881904
-1.1008506 -0.22417372 -0.25936857
-1.6094208 -0.21531479 -0.25717828
-1.5817872 -0.2133041 -0.25279811
-1.1042483 -0.21204531 -0.25959352
-1.0985836 -0.21563599 -0.25846875
-1.5991266 -0.20258369 -0.25530109
-1.5793191 -0.20175493 -0.25217238
-1.2900208 -0.20085883 -0.25377598
-1.2859308 -0.20160142 -0.25301275
-1.6083474 -0.19235346 -0.25655255
-1.5846113 -0.19119792 -0.25279811
-1.2854824 -0.19154228 -0.25263113
-1.0934322 -0.19555759 -0.25644422
-1.605725 -0.18067862 -0.25592682
-1.2926995 -0.18282761 -0.25377598
-1.1071371 -0.18488091 -0.25914362
-1.0998702 -0.18109643 -0.25734401
-1.5819819 -0.1796851 -0.25217238
-1.0953627 -0.1723128 -0.25599429
-1.5714122 -0.16738066 -0.25029516
-1.1082466 -0.16543086 -0.25869372
-1.0926846 -0.16408302 -0.2550945
-1.0911361 -0.14733338 -0.25419468
-1.0871193 -0.14795056 -0.25329489
-2.0723093 -0.13037902 -0.25495067
-1.0747414 -0.13748701 -0.25014558
-0.96086276 -0.13128021 -0.25985435
-2.0612059 -0.11650233 -0.25348827
-2.0620136 -0.10121016 -0.25348827
-1.3023039 -0.092207991 -0.25377598
-1.2904251 -0.093178101 -0.25148627
-0.96550149 -0.091096714 -0.25985435
-2.0616324 -0.087849274 -0.25336641
-1.637463 -0.082950622 -0.25968125
-2.0810807 -0.073036976 -0.2556819
-2.0671034 -0.075074941 -0.25397575
-1.6340429 -0.071629807 -0.25905553
-0.96292168 -0.076121949 -0.25881904
-2.0675771 -0.060642011 -0.25397575
-0.94507658 -0.068738155 -0.25390148
-2.0954299 -0.058896929 -0.25738806
-1.6348751 -0.049093161 -0.25905553
-1.6270438 -0.046584401 -0.25780404
-1.6115299 -0.034882374 -0.25530109
-1.595681 -0.036768664 -0.25279811
-1.1238805 -0.034926619 -0.25959352
-1.0888608 -0.032506861 -0.25149527
-1.3094891 -0.0020573284 -0.25453922
-1.305545 0.0070637469 -0.25377598
-1.2937723 0.0056452639 -0.25148627
-1.1166158 0.0052617472 -0.2577939
-1.3329475 0.016518269 -0.25911862
-1.301554 0.01476614 -0.25301275
-1.1048732 0.011763399 -0.2550945
-1.3171096 0.0248299 -0.25606567
-1.1164335 0.02085175 -0.2577939
-1.0851197 0.026709035 -0.25059548
-1.3051461 0.033036735 -0.25377598
-1.2894161 0.03376447 -0.25072303
-1.116071 0.035268765 -0.2577939
-1.0965627 0.035610404 -0.25329489
-1.3225248 0.043295711 -0.25721055
-1.3241291 0.053182591 -0.25759214
-1.2926039 0.055080049 -0.25148627
-1.6105748 0.065532073 -0.25530109
-1.5948521 0.063219227 -0.25279811
-1.3237256 0.06242514 -0.25759214
-1.311581 0.069425695 -0.25530246
-1.594293 0.076021336 -0.25279811
-1.5825324 0.073799744 -0.25092092
-1.3269603 0.075698614 -0.25835541
-1.6055579 0.087796897 -0.25467533
-1.5898837 0.084991805 -0.25217238
-1.3305633 0.081380717 -0.25911862
-1.3142931 0.089599252 -0.25606567
-1.2908952 0.086420223 -0.25148627
-1.6167358 0.099733427 -0.25655255
-1.5971386 0.096565701 -0.25342387
-1.3136356 0.098772876 -0.25606567
-1.2902604 0.095429964 -0.25148627
-1.6003008 0.10895713 -0.2540496
-1.3168461 0.10803329 -0.25682893
-1.3052361 0.10547537 -0.25453922
-1.5956347 0.11885601 -0.25342387
-1.316202 0.11561549 -0.25682893
-1.3082378 0.11652693 -0.25530246
-1.094494 0.11986653 -0.25419468
-1.5931696 0.12509987 -0.253111
-1.2995971 0.1246792 -0.25377598
-1.2880003 0.12220533 -0.25148627
-1.1091381 0.12911643 -0.2577939
-1.0976573 0.12661511 -0.2550945
-1.5867543 0.1310128 -0.25217238
-1.2988344 0.13238876 -0.25377598
-1.2869545 0.13276692 -0.25148627
-1.1004735 0.1359009 -0.25599429
-1.0890095 0.13332759 -0.25329489
-1.605476 0.14384972 -0.25530109
-1.5938442 0.14084497 -0.25342387
-1.3094386 0.14410062 -0.25606567
-1.2978786 0.14145312 -0.25377598
-1.0976651 0.14256276 -0.25554439
-2.0743563 0.15815641 -0.25543818
-1.600527 0.15439518 -0.25467533
-1.5849564 0.15121783 -0.25217238
-1.3026307 0.15187058 -0.25492084
-1.2919079 0.15885505 -0.25301275
-1.110145 0.15216948 -0.25869372
-1.0936253 0.15769112 -0.2550945
-1.591522 0.16502938 -0.25342387
-1.5877923 0.16268191 -0.25279811
-1.2956374 0.16069102 -0.25377598
-1.2867856 0.1680377 -0.25224951
-2.0930898 0.17300281 -0.25787556
-1.5942885 0.17629255 -0.2540496
-1.5866178 0.17376281 -0.25279811
-1.2971572 0.17930308 -0.25453922
-2.0957036 0.18887994 -0.25836304
-2.0761597 0.18456183 -0.25592566
-1.6047901 0.18880336 -0.25592682
-1.5775176 0.18392023 -0.25154665
-1.284184 0.18688434 -0.25224951
-1.1015387 0.18295108 -0.2577939
-1.0934273 0.1841542 -0.25599429
-2.0787725 0.19943081 -0.25641313
-1.5917064 0.19825713 -0.2540496
-1.5840713 0.19562188 -0.25279811
-1.1048729 0.19800167 -0.25914362
-1.0912402 0.19673842 -0.25599429
-2.102237 0.20427404 -0.25933796
-1.5902834 0.20936489 -0.2540496
-1.5865843 0.20718797 -0.25342387
-1.0975015 0.20578824 -0.2577939
-1.0804749 0.20142467 -0.25374478
-1.0675632 0.20673965 -0.25104538
-0.91445464 0.20406966 -0.25105447
-2.0968108 0.21853389 -0.25885051
-2.0694313 0.21312456 -0.25543818
-1.5890131 0.21879788 -0.2540496
-1.2717872 0.21510671 -0.25072303
-1.0867932 0.21499065 -0.25576934
-2.0876248 0.22973818 -0.25787556
-1.5887446 0.22073895 -0.2540496
-1.5676185 0.22897011 -0.25092092
-1.2940168 0.22491124 -0.25530246
-1.1022009 0.2224426 -0.25959352
-1.096806 0.22933458 -0.25869372
-1.0760195 0.22400817 -0.25374478
-2.103126 0.23404481 -0.25982547
-1.5913569 0.23045179 -0.25467533
-1.5740856 0.23918232 -0.25217238
-1.30787 0.23673719 -0.25835541
-1.2926595 0.23258594 -0.25530246
-1.2717068 0.23799331 -0.25148627
-1.0875597 0.23533729 -0.25689411
-1.0744295 0.23151448 -0.25374478
-0.94053054 0.23641947 -0.25985435
-2.0818985 0.24493511 -0.25738806
-1.5894552 0.24322082 -0.25467533
-1.2946092 0.24368277 -0.25606567
-1.2775058 0.24947931 -0.25301275
-1.0803953 0.24070515 -0.25554439
-1.0774281 0.24498338 -0.2550945
-1.0673369 0.24543332 -0.25284499
-2.0763338 0.2578851 -0.25690058
-1.607224 0.25743523 -0.25780404
-1.5763228 0.25051096 -0.25279811
-1.2931404 0.25136098 -0.25606567
-1.2777699 0.25822297 -0.25339437
-1.0569336 0.25140655 -0.25082043
-0.93505955 0.25720707 -0.25985435
-2.0839415 0.26104611 -0.25787556
-2.0587842 0.26994768 -0.25495067
-1.597641 0.26706657 -0.25655255
-1.5862275 0.26345155 -0.25467533
-1.2836225 0.26874632 -0.25492084
-0.92952299 0.262678 -0.25881904
-0.90017009 0.26681334 -0.25157213
-0.89984345 0.26791304 -0.25157213
-1.5882425 0.27519357 -0.25530109
-1.5723853 0.2741423 -0.25279811
-1.2796751 0.27784479 -0.25453922
-1.2607279 0.27257884 -0.25072303
-1.0789793 0.27984658 -0.25734401
-1.0654364 0.27772391 -0.25419468
-0.89635706 0.27935576 -0.25157213
-2.0843792 0.28811899 -0.25836304
-1.5647504 0.28323591 -0.25185952
-1.2815354 0.28763139 -0.25530246
-1.2578466 0.28554469 -0.25072303
-1.0656525 0.28454405 -0.2546446
-1.0560358 0.28651363 -0.25262004
-2.0800934 0.29011726 -0.25787556
-2.0312412 0.29523939 -0.25202581
-1.2794961 0.2965712 -0.25530246
-1.0652726 0.29701954 -0.25531945
-1.0781368 0.3052851 -0.25869372
-1.0648055 0.30935457 -0.25599429
-1.0557692 0.30553079 -0.25374478
-1.0588298 0.31585211 -0.2550945
-1.0469052 0.3148905 -0.25239509
-1.0603259 0.32437631 -0.25599429
-0.91500837 0.32132781 -0.25985435
-1.2607828 0.3390052 -0.25377598
-1.2536099 0.33543456 -0.25224951
-1.0603002 0.33105895 -0.25644422
-1.0535556 0.33515486 -0.25524446
-0.90843427 0.33946869 -0.25985435
-1.2473918 0.34335488 -0.25148627
-1.0470912 0.34355676 -0.25441962
-1.0384752 0.34787196 -0.25284499
-1.2697393 0.35093692 -0.25606567
-1.2448413 0.35248911 -0.25148627
-0.90366739 0.3519617 -0.25985435
-0.89610064 0.35009599 -0.25778377
-1.5546936 0.36121675 -0.25279811
-1.5410583 0.36741579 -0.25092092
-1.2459308 0.36291969 -0.25224951
-1.2362287 0.36806601 -0.25072303
-1.0409366 0.36473483 -0.2546446
-1.0386519 0.36535928 -0.25419468
-0.88902223 0.36769986 -0.25778377
-0.87575364 0.36939245 -0.25467795
-1.5751854 0.37758705 -0.25655255
-1.2546531 0.37498227 -0.25453922
-1.233629 0.37668723 -0.25072303
-1.0436075 0.37469232 -0.25599432
-1.0316203 0.37915337 -0.25374478
-0.88248312 0.37331989 -0.2567485
-0.86256999 0.37076759 -0.25157213
-1.5686756 0.38762659 -0.25592682
-1.5538019 0.38193765 -0.25342387
-1.2406758 0.38049689 -0.25224951
-1.2310364 0.38507557 -0.25072303
-1.0466553 0.38343567 -0.25734401
-1.0293522 0.3852683 -0.25374478
-1.0180019 0.38223639 -0.25104538
-0.87034404 0.38196355 -0.25467795
-1.5544451 0.39564544 -0.2540496
-1.5472678 0.39180616 -0.25279811
-1.2283182 0.39366016 -0.25072303
-1.0356002 0.39628679 -0.25599432
-0.87494922 0.3906509 -0.2567485
-0.86868376 0.39514968 -0.25571322
-2.0646925 0.40582472 -0.25836304
-2.0495305 0.40061596 -0.25641313
-1.5557148 0.40654075 -0.25467533
-1.225118 0.40350923 -0.25072303
-1.0312043 0.4022572 -0.25554439
-1.0271531 0.40191662 -0.2546446
-0.85325253 0.40990907 -0.25364268
-1.5525843 0.41833794 -0.25467533
-1.5301269 0.41056845 -0.25092092
-1.0333185 0.41455594 -0.25704408
-1.0287331 0.41898057 -0.25644422
-0.87313253 0.41310072 -0.25881904
-1.0136939 0.42306444 -0.25359482
-0.87082326 0.42680043 -0.25985435
-0.8610158 0.42629555 -0.25743869
-1.5805428 0.43594778 -0.25968125
-1.2466346 0.43778658 -0.25682893
-1.2238801 0.43147632 -0.25224951
-1.2171441 0.4386788 -0.25148627
-1.022783 0.43330294 -0.25644422
-1.0184804 0.43841609 -0.25599429
-1.5402387 0.44777215 -0.2540496
-1.2124435 0.44585091 -0.25110465
-1.026889 0.44352373 -0.2582438
-1.0118258 0.44394982 -0.2550945
-1.0051438 0.44941202 -0.25419468
-0.8488487 0.44452232 -0.2567485
-1.2261628 0.45966375 -0.25453922
-1.0273349 0.45225206 -0.25914362
-1.0066359 0.45557895 -0.2550945
-0.84715331 0.45186412 -0.25726613
-0.83576471 0.45265058 -0.25467795
-1.544647 0.46077281 -0.25530109
-1.2256808 0.46094742 -0.25453922
-1.2061809 0.46252531 -0.25110465
-1.0126225 0.46126503 -0.25689411
-1.0047131 0.46680033 -0.25576937
-0.99198771 0.46869856 -0.25329489
-0.84273773 0.46406546 -0.25778377
-1.2082416 0.4735046 -0.25224951
-1.1976149 0.47901186 -0.25072303
-0.99624771 0.47561586 -0.25486955
-0.97792774 0.47992873 -0.25149527
-0.82564408 0.478609 -0.25571322
-1.5634743 0.48039013 -0.25905553
-1.5563997 0.48983526 -0.25842977
-1.5456872 0.48438883 -0.25655255
-1.2020254 0.48906961 -0.25224951
-1.1942418 0.48736081 -0.25072303
-0.99645036 0.48417601 -0.25576934
-0.9780404 0.48848552 -0.25239509
-0.82945174 0.48741513 -0.25778377
-2.050348 0.49035299 -0.25885051
-0.98552841 0.49093673 -0.25419468
-0.97486424 0.49479312 -0.25239509
-0.8187412 0.49780226 -0.2567485
-2.0540528 0.50870663 -0.25982547
-2.0469627 0.50429744 -0.25885051
-1.2038554 0.50518888 -0.25377598
-1.1945494 0.50705612 -0.25224951
-0.98559457 0.50804961 -0.25599429
-0.97458673 0.50388354 -0.25329489
-0.81524593 0.50350595 -0.2567485
-1.1873771 0.51382363 -0.25148627
-0.98484349 0.51793146 -0.25689411
-0.9748103 0.51743859 -0.25479457
-0.81501567 0.51842242 -0.25881904
-1.1874448 0.52347779 -0.25224951
-0.96416324 0.52625883 -0.25359482
-0.78458834 0.52960986 -0.25364268
-2.0355089 0.53324616 -0.25836304
-1.1947863 0.53595811 -0.25453922
-0.96364123 0.53261691 -0.25419468
-0.79683381 0.53909141 -0.25778377
-0.78724629 0.53944236 -0.25571322
-2.0314498 0.54850745 -0.25836304
-2.0205209 0.54328722 -0.25690058
-1.1908265 0.54470021 -0.25453922
-1.1877292 0.54203063 -0.25377598
-0.97688884 0.54887718 -0.25869372
-0.96386361 0.54023141 -0.2550945
-0.95329565 0.54308873 -0.25329489
-2.016679 0.55737984 -0.25690058
-1.1824337 0.55347294 -0.25377598
-0.96631062 0.55564654 -0.25734401
-0.94534069 0.55295813 -0.25284499
-0.78546613 0.55552369 -0.25778377
-0.76609492 0.55272001 -0.25312504
-2.0237455 0.56161463 -0.25787556
-2.0051003 0.56927621 -0.25592566
-1.5382236 0.56748062 -0.25968125
-1.1725802 0.565081 -0.25301275
-0.94112289 0.56391984 -0.25329489
-0.93785942 0.56933087 -0.25329489
-0.77138722 0.56188661 -0.25571322
-0.76182032 0.56186754 -0.25364268
-2.0197754 0.57572883 -0.25787556
-1.532778 0.57643998 -0.25936839
-1.2043905 0.57137132 -0.25911862
-0.9438237 0.57825601 -0.25554439
-0.77035356 0.57629776 -0.25778377
-0.74928093 0.57848376 -0.25364268
-2.0011787 0.58291137 -0.25592566
-1.5198023 0.58278877 -0.25780404
-1.203908 0.58147335 -0.25988188
-1.1871173 0.58601624 -0.25733775
-0.9381063 0.58380604 -0.2550945
-0.92590761 0.58127111 -0.25239509
-0.91525441 0.58353025 -0.25059548
-0.76223201 0.58699745 -0.25778377
-0.74558055 0.58324498 -0.25364268
-2.0214224 0.591488 -0.25860679
-2.0065703 0.59971023 -0.25714433
-1.99633 0.5993073 -0.25592566
-1.5193756 0.59482467 -0.25842977
-0.93230772 0.59303063 -0.2550945
-0.91642725 0.59252405 -0.2519452
-0.74800932 0.59265232 -0.25571322
-1.964376 0.60206944 -0.25226957
-1.5219917 0.60967785 -0.25968125
-1.1883364 0.60405123 -0.25911862
-1.1774865 0.60800636 -0.25759214
-0.91552734 0.60104501 -0.25284499
-0.90356857 0.60146666 -0.25059548
-1.9845083 0.61089355 -0.25495067
-1.9620185 0.61636412 -0.25251329
-1.5073713 0.6142261 -0.25780404
-1.1872029 0.61486167 -0.25988188
-1.1767973 0.61783236 -0.25835541
-0.91914892 0.61322778 -0.2550945
-0.9054864 0.61259687 -0.25239509
-0.73117006 0.61330676 -0.25571322
-0.72098476 0.61338925 -0.25364268
-1.9783021 0.62413597 -0.25470695
-1.955888 0.62909663 -0.25226957
-1.5176985 0.62028813 -0.25968125
-1.5023913 0.62630808 -0.25780404
-1.4993981 0.62321818 -0.25717828
-1.1792728 0.62993765 -0.25988188
-0.88971496 0.62855518 -0.25149527
-0.72253561 0.62345576 -0.25571322
-1.9551181 0.63148558 -0.25226957
-1.9420214 0.63963103 -0.25105089
-1.5034361 0.63909984 -0.25874263
-1.4914837 0.63186836 -0.25655255
-0.90290868 0.63011193 -0.25419468
-0.89432752 0.63720059 -0.25351983
-0.71387082 0.63335866 -0.25571322
-1.9468921 0.64387327 -0.25178206
-1.487036 0.64226586 -0.25655255
-0.89096999 0.64022678 -0.25329489
-0.88445336 0.644247 -0.25262004
-0.87165302 0.64357793 -0.25014558
-0.71230394 0.64091128 -0.2567485
-0.70379287 0.64738959 -0.25623086
-1.9376225 0.65283465 -0.25105089
-1.9293016 0.65265721 -0.25007591
-1.4933637 0.65740669 -0.25842977
-1.485446 0.65577888 -0.25717828
-1.1475828 0.65483487 -0.25682893
-0.86535668 0.6536299 -0.25037053
-0.70260423 0.65153009 -0.2567485
-0.69247597 0.65667576 -0.25571322
-1.9284501 0.66740882 -0.25056338
-1.4757733 0.66293132 -0.25623968
-1.4630861 0.66938829 -0.25483179
-1.4323559 0.66761386 -0.25029516
-1.1605297 0.66383457 -0.25988188
-1.1378471 0.66383886 -0.25606567
-1.127599 0.66579783 -0.25453922
-1.1135204 0.66642815 -0.25224951
-1.109455 0.66557395 -0.25148627
-0.87274665 0.66485429 -0.25329489
-0.8661797 0.66861403 -0.25262004
-0.85417747 0.66976047 -0.25059548
-0.68184608 0.66771281 -0.25571322
-1.4280149 0.67685014 -0.25029516
-0.85960001 0.6723181 -0.25194517
-0.84889668 0.67330974 -0.25014558
-0.68026316 0.67482311 -0.2567485
-0.67955589 0.67553538 -0.2567485
-0.66277838 0.67586255 -0.25364268
-0.65654874 0.67114776 -0.25157213
-1.4363452 0.68233377 -0.25185952
-1.422955 0.68742359 -0.25029516
-1.100054 0.68099934 -0.25148627
-1.0926671 0.68542868 -0.25072303
-0.85875058 0.68283623 -0.25329489
-0.63767332 0.68910688 -0.25157213
-1.0875528 0.69351459 -0.25072303
-0.84602666 0.69444257 -0.25269502
-0.83163857 0.69906461 -0.25082043
-0.65112573 0.69240916 -0.25467795
-0.63320994 0.69321024 -0.25157213
-1.0829906 0.70061773 -0.25072303
-0.82525444 0.70358992 -0.25037053
-0.81995684 0.70826715 -0.25014558
-0.62491149 0.70843744 -0.25312504
-0.82658178 0.71550238 -0.25239509
-0.81570846 0.71611309 -0.25059548
-0.62093174 0.71961027 -0.25467795
-1.0674489 0.72407645 -0.25072303
-0.81594157 0.72468138 -0.25194517
-0.61351526 0.72087753 -0.25364268
-0.599222 0.72279221 -0.25157213
-1.3988039 0.73532301 -0.25029516
-0.81375843 0.73296851 -0.25284499
-0.61381704 0.73074156 -0.25571322
-0.608316 0.73532736 -0.25571322
-0.80058604 0.74161017 -0.25194517
-0.79726839 0.74516654 -0.2519452
-0.7897079 0.74184436 -0.25014558
-0.58677107 0.74280328 -0.25364268
-0.57363164 0.74326462 -0.25157213
-1.3874779 0.75647712 -0.25029516
-0.79579747 0.75809246 -0.25374478
-0.78220803 0.75536954 -0.25104538
-0.57323855 0.75330132 -0.25364268
-1.3856182 0.76806086 -0.25092092
-0.79388231 0.76290315 -0.25419468
-0.77593189 0.76596904 -0.25172022
-0.56462669 0.76458597 -0.25467795
-0.55666924 0.76562703 -0.25364268
-1.3836644 0.77965468 -0.25154665
-1.3775921 0.77433366 -0.25029516
-0.76478595 0.77482057 -0.25134531
-0.52610123 0.77763301 -0.25157213
-0.75590217 0.78440177 -0.25149527
-0.53507447 0.78087175 -0.25364268
-0.50390697 0.79219508 -0.25157213
-0.49321538 0.7988956 -0.25157213
-0.73122066 0.80219352 -0.25059548
-1.3545828 0.81391519 -0.25029516
-0.73296869 0.81375831 -0.25284499
-0.48043936 0.81562454 -0.25364268
-0.47000778 0.81276584 -0.25157213
-1.3488677 0.82335216 -0.25029516
-0.71536911 0.82410955 -0.2519452
-0.7041328 0.82735181 -0.25082043
-0.45661065 0.82919967 -0.25364268
-0.4437145 0.82740837 -0.25157213
-0.69940126 0.83262855 -0.25104538
-0.45182717 0.83181584 -0.25364268
-0.43330526 0.83290368 -0.25157213
-0.69605768 0.84049237 -0.25194517
-1.3316257 0.85095561 -0.25029516
-1.326403 0.85907364 -0.25029516
-0.67740738 0.85559511 -0.25194517
-0.38628626 0.85572791 -0.25157213
-1.3355953 0.86668289 -0.25217238
-0.36503896 0.8650099 -0.25157213
-1.3262131 0.8738119 -0.25154665
-1.3139722 0.87796843 -0.25029516
-0.66184759 0.8725844 -0.25284499
-1.3078113 0.88711995 -0.25029516
-0.63180602 0.8802231 -0.25014558
-0.32327044 0.88147134 -0.25157213
-0.61292189 0.89347535 -0.25014558
-0.29557717 0.89113355 -0.25157213
-0.58152598 0.91422045 -0.25014558
-1.3015133 0.92391169 -0.25279811
-0.54191393 0.93824351 -0.25014558
-1.269187 0.94155025 -0.25029516
-1.2688955 0.95514017 -0.25154665
-0.48243931 0.97016692 -0.25014558
-0.41450804 1.0031855 -0.25059548
-0.37924504 1.0170405 -0.25059548
-0.33789191 1.0356174 -0.25149527
-1.1864954 1.0438302 -0.25029516
-1.1342801 1.100346 -0.25029516
-1.6414771 1.2190683 -0.25105089
-1.6280813 1.223731 -0.25007591
-1.6392677 1.2352769 -0.25202581
-1.6211421 1.2394563 -0.25056338
-1.619498 1.2350678 -0.25007591
-1.6139765 1.2487731 -0.25056338
-1.6249981 1.2604773 -0.25251329
-1.6255186 1.2791567 -0.25397575
-1.5963833 1.2711862 -0.25056338
-1.6074643 1.2827626 -0.25251329
-1.5984701 1.2939532 -0.25251329
-1.5834879 1.2997658 -0.25153834
-1.5713241 1.3082488 -0.25105089
-1.5694118 1.3043394 -0.25056338
-1.5591195 1.3166248 -0.25056338
2.8640573 -3.5787666 -0.24022207
2.8871226 -3.5627558 -0.24032672
2.8927486 -3.5633364 -0.24053608
2.9166422 -3.5450983 -0.24058841
2.9391432 -3.5251663 -0.24053608
2.9447792 -3.5256658 -0.24074543
0.087170899 -2.0249038 -0.24885723
0.10051944 -2.0262728 -0.24910097
0.11565896 -2.0274532 -0.24934471
0.12854852 -2.0207098 -0.24861349
0.14406279 -2.0196629 -0.24861349
1.9209913 -2.0003936 -0.24264158
1.9487338 -1.9733776 -0.24264158
1.9624629 -1.9597248 -0.24264158
1.9757569 -1.9463215 -0.24264158
1.9906453 -1.9310913 -0.24264158
0.65319073 -1.9165422 -0.24861349
0.6660462 -1.9131632 -0.24873535
2.0024042 -1.9188954 -0.24264158
0.67622685 -1.9022168 -0.24788228
2.0157518 -1.9048692 -0.24264158
0.67655361 -1.8978863 -0.2473948
0.68879533 -1.8934776 -0.2473948
0.70404124 -1.8920987 -0.24788228
2.029001 -1.8907504 -0.24264158
0.70133823 -1.8888679 -0.2473948
0.71450776 -1.8839256 -0.2473948
0.71159142 -1.8722926 -0.24593236
0.7225579 -1.8638303 -0.24544489
2.0552022 -1.8622367 -0.24264158
0.73239052 -1.8535868 -0.24471366
0.72889012 -1.8400279 -0.2430075
0.75872928 -1.8408152 -0.24446991
0.74165964 -1.8370588 -0.24325123
0.75259322 -1.8304608 -0.2430075
0.76919228 -1.8343155 -0.2442262
0.76771581 -1.8263235 -0.24325122
0.77885777 -1.8215997 -0.24325122
0.78996962 -1.8124783 -0.24276376
0.77575517 -1.8099718 -0.24178879
0.78996146 -1.8081502 -0.24227627
0.80067724 -1.8034307 -0.24227627
0.80530596 -1.7948332 -0.24154505
0.81317705 -1.7934707 -0.24178879
0.82827109 -1.7974845 -0.2430075
0.82651019 -1.7895522 -0.24203253
0.8399564 -1.7898612 -0.24276376
0.84729648 -1.7732069 -0.24130133
2.1795003 -1.7150979 -0.24264158
-0.095782772 -1.5615636 -0.24779223
-0.083515443 -1.5622678 -0.24779223
-0.0087156119 -1.5605234 -0.24716648
0.0021789214 -1.5605463 -0.24716648
0.035268553 -1.560149 -0.24716648
0.078334495 -1.562536 -0.24779223
0.091106161 -1.5658008 -0.24841796
0.1113209 -1.5644937 -0.24841796
0.14465086 -1.5637484 -0.24873084
0.1557591 -1.564666 -0.2490437
-0.072423562 -1.5588663 -0.24716648
0.056830682 -1.5535823 -0.24622788
0.079496704 -1.5585215 -0.24716648
0.18734144 -1.5572206 -0.24841796
0.11155086 -1.5486338 -0.245915
0.12073862 -1.5479445 -0.245915
0.19621126 -1.5401984 -0.245915
0.20882206 -1.546513 -0.24716648
0.19628242 -1.5322237 -0.24466354
1.2573571 -1.5258385 -0.24276376
1.2354826 -1.5180943 -0.24032637
0.43197757 -1.4995681 -0.24716648
1.2864239 -1.4751751 -0.24032637
1.3180461 -1.4469907 -0.24032637
1.3268604 -1.4389125 -0.24032637
1.336624 -1.4298475 -0.24032637
1.3927734 -1.4089099 -0.24325122
0.7101934 -1.3807011 -0.245915
0.72409987 -1.3868433 -0.24779223
1.3885216 -1.3851328 -0.24081384
0.70357621 -1.3707758 -0.24403779
0.71981519 -1.3757093 -0.245915
1.4103365 -1.3686216 -0.24130133
0.7802738 -1.351474 -0.24716648
1.4379704 -1.3569714 -0.24276376
0.7534883 -1.3258404 -0.24153483
1.4511245 -1.3134936 -0.24032637
0.82503092 -1.3012953 -0.24403779
1.4728665 -1.2950863 -0.24081385
-0.12235747 -1.2800972 -0.2499598
-0.069093309 -1.2840742 -0.2499598
-0.041289251 -1.2852687 -0.2499598
-0.033111524 -1.2815775 -0.24919657
-0.02304527 -1.281798 -0.24919657
0.82874799 -1.2871997 -0.24247345
1.4843112 -1.2880197 -0.24130133
-0.1344609 -1.2729545 -0.24881494
-0.12937982 -1.2715131 -0.24843332
-0.08488676 -1.2713214 -0.2476701
-0.077579468 -1.2757219 -0.24843332
-0.031797212 -1.2737553 -0.2476701
-0.0053534731 -1.2780674 -0.24843332
0.0030113896 -1.2780749 -0.24843332
0.012268604 -1.2780197 -0.24843332
0.020013617 -1.2739949 -0.2476701
0.056688584 -1.2728904 -0.2476701
0.065119416 -1.2744527 -0.2480517
0.073571429 -1.2759593 -0.24843332
0.099747278 -1.2702419 -0.2476701
0.10505684 -1.2737474 -0.24843332
0.12671654 -1.2717813 -0.24843332
0.14512715 -1.2737643 -0.24919657
0.84476936 -1.2743733 -0.24216059
1.4872336 -1.2724638 -0.24032637
-0.14709729 -1.2616795 -0.24690685
-0.13828552 -1.2626758 -0.24690685
-0.11588401 -1.2649225 -0.24690686
-0.075761475 -1.2640307 -0.24614362
-0.067142576 -1.2684497 -0.24690685
-0.055898413 -1.2650586 -0.24614362
-0.045472153 -1.2674409 -0.24652523
-0.023793576 -1.2621483 -0.24538037
-0.013923376 -1.2662226 -0.24614362
-0.0063893846 -1.2623563 -0.24538037
0.029372111 -1.2698858 -0.24690685
0.037682913 -1.2696664 -0.24690685
0.047358975 -1.2614838 -0.24538037
0.074217096 -1.2641224 -0.24614362
0.09163934 -1.2629789 -0.24614362
0.10972041 -1.2694192 -0.2476701
0.13564073 -1.2629626 -0.24690685
0.1444544 -1.2619848 -0.24690685
0.84537184 -1.2644715 -0.2409091
-0.24268301 -1.2508272 -0.2476701
-0.21598598 -1.2517279 -0.24690685
-0.20810218 -1.257043 -0.2476701
-0.19103955 -1.2557774 -0.24690685
-0.17207538 -1.2545531 -0.24614362
-0.16411558 -1.2575989 -0.24652523
-0.15474139 -1.2548306 -0.24576199
-0.085201055 -1.2594939 -0.24538037
0.020864908 -1.2582731 -0.24461715
0.038431101 -1.2578591 -0.24461715
0.084667534 -1.2582121 -0.24512596
0.1160247 -1.2530862 -0.24461715
0.15187618 -1.2532029 -0.24538037
0.17907964 -1.2535725 -0.24614362
0.19668518 -1.2588799 -0.2476701
-0.30443117 -1.2412922 -0.24843332
-0.28772104 -1.2452717 -0.24843334
-0.27881569 -1.2432721 -0.2476701
-0.26860783 -1.2455174 -0.2476701
-0.24302329 -1.2467608 -0.24690685
-0.21640715 -1.2476704 -0.24614362
-0.20769151 -1.2491509 -0.24614362
0.16410591 -1.2457142 -0.24423555
0.18724427 -1.2484086 -0.24538037
0.21138518 -1.2405655 -0.24461715
0.22159509 -1.2427711 -0.24538037
0.2670626 -1.2478573 -0.2480517
0.27490845 -1.2441419 -0.2476701
0.87569183 -1.2436749 -0.2409091
0.88872981 -1.244115 -0.24216059
1.5133393 -1.2413025 -0.24032637
-0.33979708 -1.2361535 -0.24919657
-0.32160497 -1.2328966 -0.2476701
0.16799486 -1.2392582 -0.24309067
0.17577796 -1.2381781 -0.24309067
0.19412661 -1.2354343 -0.24309067
0.20262718 -1.2380474 -0.24385393
0.21547183 -1.2358711 -0.24385393
0.22846971 -1.2375331 -0.24461715
0.23784339 -1.239764 -0.24538037
0.2460331 -1.2301574 -0.24385393
0.28183353 -1.2325237 -0.24576199
-0.39224833 -1.2246475 -0.2499598
-0.3653459 -1.2247478 -0.24843332
-0.3471404 -1.2259516 -0.2476701
-0.33857319 -1.2283452 -0.2476701
0.22740084 -1.2257513 -0.24232745
0.24342601 -1.2226697 -0.24232745
0.25397187 -1.2285428 -0.24385393
0.27237764 -1.2286159 -0.24461715
0.28753632 -1.2211233 -0.24385393
0.318039 -1.2297659 -0.24690685
0.32353258 -1.2202094 -0.24538037
0.35334101 -1.2241789 -0.2476701
0.37161112 -1.2269647 -0.24919657
0.92614597 -1.2214797 -0.24278632
-0.40765506 -1.2113224 -0.24843332
0.28769863 -1.2170508 -0.24309067
0.29711819 -1.2188274 -0.24385393
0.30466327 -1.2129152 -0.24309067
0.31402653 -1.218636 -0.24461715
0.32358778 -1.2161322 -0.24461715
0.33103397 -1.2100562 -0.24385393
0.34901595 -1.2131662 -0.24538037
0.35747683 -1.2107 -0.24538037
0.91813868 -1.2126766 -0.2409091
-0.43188408 -1.2028968 -0.24843332
-0.42465401 -1.2075496 -0.24881494
-0.41504696 -1.2088097 -0.24843332
0.35609287 -1.2029203 -0.24385393
0.36448205 -1.200405 -0.24385393
0.37318161 -1.2018411 -0.24461715
-0.43891868 -1.1961664 -0.2476701
0.32687941 -1.1989799 -0.2415642
0.37285352 -1.1978313 -0.24385393
0.38537431 -1.1938539 -0.24385393
0.40617776 -1.1910945 -0.24461715
0.94312543 -1.1933472 -0.2409091
-0.47360158 -1.1870916 -0.24843332
0.37561017 -1.1804981 -0.24080098
0.38728479 -1.1891146 -0.24309067
0.39609605 -1.1862085 -0.24309069
0.41292688 -1.1804551 -0.24309067
0.96571547 -1.1853507 -0.24216059
-0.50635749 -1.1734934 -0.24843332
-0.49897432 -1.1766517 -0.24843332
-0.48101491 -1.179868 -0.2476701
0.40572259 -1.1746393 -0.2415642
0.43578228 -1.1763922 -0.24385393
0.44831997 -1.1758809 -0.24461715
0.97293824 -1.1794294 -0.24216059
-0.55033422 -1.1600462 -0.24957818
-0.51535428 -1.1695703 -0.24843332
0.41719103 -1.1664522 -0.24080098
0.42430863 -1.1638819 -0.24080098
0.44191396 -1.161514 -0.2415642
0.45285565 -1.1657207 -0.24309067
0.47284737 -1.1662341 -0.24461715
0.97607791 -1.1665484 -0.2409091
-0.5574103 -1.1566627 -0.24957818
-0.54784369 -1.1568813 -0.24881494
0.45664078 -1.1515807 -0.24080098
0.46741298 -1.155726 -0.24232745
0.47777456 -1.1557312 -0.24309067
-0.590285 -1.1402361 -0.24957818
-0.57526386 -1.1412889 -0.24843332
-0.56284583 -1.1463773 -0.24824251
-0.555004 -1.1491045 -0.2480517
0.45599455 -1.1476127 -0.24003772
0.47397241 -1.148805 -0.2415642
0.48278055 -1.1451313 -0.2415642
0.49131417 -1.1457696 -0.24232745
0.51435339 -1.1442211 -0.24385393
0.52970487 -1.1458609 -0.24538037
0.47873682 -1.1383132 -0.24003772
0.49507698 -1.1313021 -0.24003772
0.50665665 -1.1347694 -0.2415642
0.51599413 -1.134869 -0.24232745
1.0082693 -1.13884 -0.2409091
1.0159978 -1.1319505 -0.2409091
-0.60238355 -1.1272173 -0.24843332
0.52534664 -1.1240637 -0.2411826
0.53100169 -1.1279249 -0.24232745
0.54748034 -1.1200191 -0.24232745
0.55954951 -1.1272049 -0.24461715
0.5674051 -1.1232711 -0.24461715
-0.62644166 -1.1140268 -0.24843332
0.53527361 -1.1172023 -0.24080098
0.55528611 -1.1161697 -0.24232745
-0.64708263 -1.1036739 -0.24868774
0.55774456 -1.1017563 -0.24003772
0.56984878 -1.1088057 -0.24232745
0.57575649 -1.1013206 -0.2415642
0.58808124 -1.1036953 -0.24309067
0.56542253 -1.0978358 -0.24003772
0.58343118 -1.0972743 -0.2415642
0.59275335 -1.0967319 -0.24232745
0.60610497 -1.0938926 -0.24309067
1.0519525 -1.0931405 -0.24028336
-0.68421882 -1.0841416 -0.24919657
-0.019630633 -1.0813726 -0.24969566
0.5975607 -1.0851636 -0.24080098
1.0625077 -1.0884119 -0.2409091
-0.70366299 -1.0716323 -0.24919657
-0.6969161 -1.0760323 -0.24919657
-0.094639331 -1.0774022 -0.24969566
-0.071103804 -1.0733522 -0.24834597
0.0035800838 -1.0795962 -0.24924576
0.11603436 -1.0733484 -0.24924576
0.12299767 -1.0745342 -0.24969566
0.60648954 -1.0756868 -0.24003772
0.61996847 -1.0725195 -0.24080098
0.62868142 -1.07199 -0.2415642
0.63141829 -1.0749365 -0.24232745
1.0933362 -1.0744184 -0.24278632
-0.71837133 -1.0618286 -0.24919657
-0.18235499 -1.0601355 -0.24834597
-0.11519653 -1.0655986 -0.24744615
0.63652241 -1.0673527 -0.2415642
0.64358741 -1.0631077 -0.2415642
0.68346715 -1.0613468 -0.24538037
1.641717 -1.0657359 -0.24032637
-0.73386085 -1.051183 -0.24919657
0.18956691 -1.0588697 -0.24834597
0.24040288 -1.0504967 -0.24879587
0.64449489 -1.0556564 -0.24041936
0.65720439 -1.0501149 -0.24080098
0.66762984 -1.0528284 -0.24232745
1.0928531 -1.0579393 -0.2409091
-0.21728849 -1.0455701 -0.24654636
0.26278606 -1.0431126 -0.24834597
1.1067896 -1.0433505 -0.2409091
0.66949189 -1.0376544 -0.24003772
0.67778587 -1.0369499 -0.24080098
0.68509632 -1.0391896 -0.24194583
0.69529104 -1.0300355 -0.2415642
-0.32515872 -1.0284448 -0.24902081
0.33565345 -1.0281483 -0.24969566
0.35005841 -1.0212736 -0.24924576
0.70157015 -1.025769 -0.2415642
0.72052544 -1.0221673 -0.24309067
1.1212491 -1.0277956 -0.2409091
0.33109304 -1.0111871 -0.24564654
0.34447929 -1.0180218 -0.24812101
0.36790708 -1.0135916 -0.24894583
1.128397 -1.0199429 -0.2409091
0.37553003 -1.0038664 -0.24744615
0.39935443 -1.0030239 -0.24924576
0.71645546 -1.0057944 -0.24003772
0.72833121 -1.002094 -0.24080098
0.73676693 -1.0007883 -0.2415642
0.74843544 -1.0019119 -0.24309067
0.40481126 -0.99768007 -0.24857092
0.41314584 -0.99742228 -0.24924576
0.75304008 -0.99353319 -0.24232745
1.162443 -0.99317098 -0.24216059
-0.44770369 -0.98239613 -0.24924576
0.40557772 -0.98157299 -0.24519664
0.41696078 -0.98949248 -0.24789605
0.422407 -0.98081779 -0.24654636
0.43411559 -0.98101664 -0.2476711
0.43748084 -0.97845852 -0.24744615
0.44427842 -0.97646123 -0.2476711
0.45270684 -0.97795367 -0.24879587
0.77436417 -0.97700441 -0.24232745
0.45787612 -0.96908206 -0.24744615
0.46463042 -0.96586186 -0.24744615
0.4730882 -0.96825844 -0.24879587
0.76620251 -0.96844184 -0.24003772
0.46964797 -0.95909435 -0.24654636
0.48301896 -0.95352274 -0.24677131
0.49742904 -0.9559744 -0.24879587
0.47113812 -0.94640529 -0.2440719
0.49451494 -0.94431341 -0.24609646
0.50271749 -0.94328576 -0.24677131
0.51305425 -0.9476878 -0.24879587
0.52813923 -0.94383323 -0.24969566
0.79665196 -0.9435451 -0.24003772
0.81121063 -0.94145638 -0.2415642
1.1898825 -0.94749296 -0.2409091
-0.53440708 -0.93805647 -0.24924576
0.50737631 -0.93524927 -0.24564654
0.517658 -0.93850982 -0.24744615
0.52229118 -0.93147367 -0.24654636
-0.56188625 -0.92414069 -0.24969566
0.5247609 -0.92112392 -0.24474674
0.53524935 -0.92521417 -0.24677131
0.54384154 -0.92584449 -0.24789605
0.55311227 -0.92601538 -0.24902081
0.83139426 -0.9236809 -0.2415642
-0.56461322 -0.91561592 -0.24834597
0.53757066 -0.91370732 -0.24474674
0.56386262 -0.9149338 -0.24812101
1.2158742 -0.91390002 -0.2409091
1.2285738 -0.91009265 -0.24216059
0.55229861 -0.90944391 -0.24564654
0.56816828 -0.90767145 -0.2472212
0.57540816 -0.90425444 -0.24744615
0.58379829 -0.90466416 -0.24857092
0.83887511 -0.90621984 -0.24003772
0.84708005 -0.90394378 -0.24080098
0.85941046 -0.90310085 -0.24232745
1.2196802 -0.90218645 -0.24028336
0.57148468 -0.89982122 -0.24609646
0.58995861 -0.89949393 -0.24834597
0.59529221 -0.89480281 -0.24812101
0.60277212 -0.89330995 -0.24879587
0.87680227 -0.89723861 -0.24385393
0.59809434 -0.88471144 -0.24654636
0.61468989 -0.88277793 -0.24834597
0.85751444 -0.88860279 -0.24003772
0.86369711 -0.88259453 -0.24003772
-0.63491452 -0.87196404 -0.24902081
0.59969294 -0.874192 -0.24474674
0.60018373 -0.87621814 -0.24519664
0.61073607 -0.87840682 -0.24699625
0.62721646 -0.87512112 -0.2485709
0.86922562 -0.87715042 -0.24003772
0.88352424 -0.87952399 -0.24232745
0.89244497 -0.8760851 -0.24309067
-0.95593393 -0.8601225 -0.2499598
0.61184007 -0.86573374 -0.24474674
0.88184047 -0.86446702 -0.24003772
0.89556682 -0.86725867 -0.24232745
0.90727895 -0.86640888 -0.24385393
-0.96176624 -0.85359597 -0.2499598
0.62705088 -0.85597891 -0.24497169
0.63256139 -0.85798538 -0.24609646
0.64602655 -0.85441023 -0.24729617
0.65737599 -0.85392839 -0.24879587
0.91044694 -0.85736191 -0.24309067
0.61698717 -0.84765339 -0.24204734
0.65455061 -0.84872496 -0.24744615
0.66092241 -0.84624654 -0.24789605
0.90490115 -0.84029746 -0.24003772
0.6593104 -0.83139622 -0.24497169
0.66779029 -0.83086044 -0.24609646
0.6779933 -0.83011788 -0.24744615
0.91945958 -0.83021259 -0.24080098
0.9289335 -0.83729655 -0.24309067
0.64604986 -0.82571721 -0.24204734
0.67684191 -0.81845206 -0.24519664
0.6907289 -0.81189066 -0.24609646
0.70366722 -0.81491715 -0.2485709
0.67725658 -0.806692 -0.24317209
0.69017303 -0.80980438 -0.24564654
0.70384151 -0.80314273 -0.24654636
0.71520102 -0.80611682 -0.24879587
0.70425296 -0.79238313 -0.24474674
0.71659541 -0.79572207 -0.2472212
0.72113222 -0.79029447 -0.24699625
0.73394096 -0.7917521 -0.24924576
0.71524769 -0.78247303 -0.24474674
0.73830318 -0.78634983 -0.24902081
0.71339643 -0.77093762 -0.24249724
0.73571229 -0.77270842 -0.24632141
0.74819499 -0.77559078 -0.24879587
0.74210048 -0.76793092 -0.24654636
0.76703769 -0.76249945 -0.24969566
-0.77187341 -0.75481927 -0.24924576
-0.76856154 -0.75263125 -0.24834597
0.52585995 -0.7543636 -0.24639574
0.73925996 -0.7543804 -0.24384695
0.74009603 -0.75628906 -0.24429685
0.75346124 -0.7595349 -0.24699625
0.7666446 -0.75180298 -0.24789605
-0.77405828 -0.74697661 -0.24834596
0.55637473 -0.74183005 -0.2484663
0.75235677 -0.74686182 -0.24474674
0.56153995 -0.73792779 -0.2484663
0.74906915 -0.73354262 -0.24204734
0.75977916 -0.73371023 -0.24384695
0.76860499 -0.73295647 -0.24519664
0.78222102 -0.73558271 -0.24789605
0.79019511 -0.73275411 -0.24879587
0.76488286 -0.72838801 -0.24384695
0.77575862 -0.72823101 -0.24564654
0.78654397 -0.72809279 -0.24744615
0.79816765 -0.7298497 -0.24969566
0.78580934 -0.71302444 -0.24497169
0.80191278 -0.71259797 -0.2476711
1.0033342 -0.71990716 -0.24003772
0.78492242 -0.70674735 -0.24384695
0.81528652 -0.70473027 -0.24879587
0.79514247 -0.69670832 -0.2440719
0.80545199 -0.69524741 -0.24564654
0.81709856 -0.6966359 -0.24789605
0.80719799 -0.68722242 -0.24474674
0.81397569 -0.68373454 -0.2454216
0.81717062 -0.67686188 -0.24497169
0.8214131 -0.67016697 -0.24474674
0.81931913 -0.66965026 -0.24429685
0.82910872 -0.66685879 -0.24564654
0.83469284 -0.66299373 -0.24609646
0.85157591 -0.66676128 -0.24969566
0.83451438 -0.65692526 -0.24519664
0.85003912 -0.65603745 -0.24789605
0.84839451 -0.6453678 -0.24609646
0.86223435 -0.64644313 -0.24879587
0.82745492 -0.63745618 -0.24114752
0.84330559 -0.63593793 -0.24384695
0.85676026 -0.63258064 -0.2458715
0.85485172 -0.62199885 -0.2440719
0.87983942 -0.62226969 -0.24879587
0.8628087 -0.61930609 -0.24519664
0.87549812 -0.61828274 -0.24744615
0.88416225 -0.61611205 -0.24879587
0.68639195 -0.60025609 -0.24432519
0.70637572 -0.60074776 -0.2484663
0.84898543 -0.60848647 -0.24114752
0.87558919 -0.60110092 -0.24519664
0.88726014 -0.60820228 -0.24834597
0.86059779 -0.59879947 -0.24204734
0.87749839 -0.59310597 -0.2445218
0.71854615 -0.58613634 -0.2484663
0.72287422 -0.5807904 -0.2484663
0.8729493 -0.5806452 -0.24204734
0.88415897 -0.58488721 -0.24474674
0.90819407 -0.58731234 -0.24969566
0.71634734 -0.57657582 -0.24639574
0.88340098 -0.57896256 -0.24384695
0.89912236 -0.57258344 -0.24609646
0.88087207 -0.5685541 -0.24204734
0.89336526 -0.56345356 -0.24384695
0.72947729 -0.55350274 -0.24536048
0.88658768 -0.55593979 -0.24159741
0.89248979 -0.55013764 -0.24204734
0.90702927 -0.55997396 -0.24609646
0.89759409 -0.54553115 -0.24249724
0.90482712 -0.5448578 -0.24384695
0.91466373 -0.54741496 -0.24609646
0.92853755 -0.54695046 -0.24879587
1.1123935 -0.54519671 -0.24080098
0.75397927 -0.53979605 -0.2484663
0.90372252 -0.53148377 -0.24204734
0.92493415 -0.5357331 -0.24677131
1.1122606 -0.5364908 -0.24003772
0.9123854 -0.52041543 -0.24249724
0.93737626 -0.52570981 -0.24812101
0.94551742 -0.52109271 -0.24924576
0.90766823 -0.51688534 -0.24114752
0.93312109 -0.51532304 -0.24609646
0.94354558 -0.51251674 -0.24789605
0.93199992 -0.50519252 -0.24474674
0.92647421 -0.49489892 -0.24249724
0.93206477 -0.49684033 -0.24384695
0.94823897 -0.49751943 -0.2472212
0.94649374 -0.48820668 -0.2458715
0.96096355 -0.48773554 -0.24879587
0.79625523 -0.47522861 -0.2484663
0.94383693 -0.47408146 -0.24384695
0.9538821 -0.47579595 -0.24609646
0.80281281 -0.46406481 -0.2484663
0.93968171 -0.46054867 -0.24159741
0.9556756 -0.46776706 -0.24564654
0.94135535 -0.45263907 -0.24114752
0.95599914 -0.45588171 -0.2445218
0.97396219 -0.45664436 -0.24834596
0.96526217 -0.44765028 -0.24564654
0.97337478 -0.44400284 -0.24699625
0.81851941 -0.43576434 -0.2484663
0.96496934 -0.43421033 -0.24429685
0.97159934 -0.42650265 -0.24497169
0.98603886 -0.42506352 -0.24789605
