# .PCD v0.7 - Point Cloud Data file format
VERSION 0.7
FIELDS x y z
SIZE 4 4 4
TYPE F F F
COUNT 1 1 1
WIDTH 378
HEIGHT 1
VIEWPOINT 0 0 0 1 0 0 0
POINTS 378
DATA ascii
5.5355177 -4.8836503 -0.3868674
5.4437246 -4.7338257 -0.378075
5.4198828 -4.7064519 -0.37619087
5.3523088 -4.5891042 -0.3694919
5.3403397 -4.5723763 -0.36844519
5.2706261 -4.4508719 -0.36153683
5.2248545 -4.3562751 -0.35651258
5.2424278 -4.1894708 -0.35169765
5.2304678 -4.1724391 -0.35065094
5.5002646 -4.0300093 -0.35734996
5.4966288 -4.021451 -0.35693124
5.1820221 -4.2008128 -0.34960422
5.1825805 -4.1937761 -0.34939486
-1.6995814 -3.0101264 -0.30243042
-1.693566 -3.0043697 -0.30173317
-1.7080358 -2.9823985 -0.30068728
-1.6997293 -2.9618983 -0.29876989
0.37466106 -1.7581153 -0.28471076
0.34852493 -1.747371 -0.28220782
0.39599532 -1.7331761 -0.28158206
0.34238362 -1.7244239 -0.27845338
0.31547052 -1.7054486 -0.27469894
0.32699871 -1.7052872 -0.27501184
0.34804252 -1.6910344 -0.27344745
0.38250315 -1.6795226 -0.27282172
0.40615049 -1.6698958 -0.27219599
0.65978503 -1.6338466 -0.27907911
0.65676314 -1.6222841 -0.27720189
0.62203932 -1.6020539 -0.27219599
0.65763152 -1.5963243 -0.27344745
0.67154133 -1.5990963 -0.27469894
0.68113375 -1.5907373 -0.27407321
0.77159649 -1.5841117 -0.27907911
0.73959661 -1.5731478 -0.2753247
0.75540292 -1.5787685 -0.27720189
0.78088212 -1.5751468 -0.27845338
0.69685495 -1.566633 -0.27157027
0.72169954 -1.5640507 -0.27282172
0.72140551 -1.5598346 -0.27219599
0.75218087 -1.5408342 -0.27157027
0.76116174 -1.5320072 -0.27094454
0.90465093 -1.4704888 -0.27344745
0.89509839 -1.4578108 -0.27094454
0.031904515 -1.0040562 -0.26917183
0.10073656 -0.99173242 -0.26710126
-0.094842255 -0.9832508 -0.26468563
-0.031241108 -0.98861456 -0.26503071
0.0097629363 -0.98133206 -0.26296017
0.010661181 -0.98518676 -0.26399544
0.064781286 -0.98311245 -0.26399544
0.071471632 -0.98264867 -0.26399544
0.08637847 -0.98532915 -0.26503071
0.10637884 -0.987257 -0.26606598
0.11368519 -0.98255306 -0.26503071
0.13511372 -0.98763627 -0.26710126
-0.13269074 -0.97626829 -0.26399544
-0.12587187 -0.97717088 -0.26399544
-0.11990038 -0.97792155 -0.26399544
0.076211311 -0.97712046 -0.26261508
0.09216243 -0.97316265 -0.26192489
0.11550498 -0.9745537 -0.26296017
0.13912565 -0.97146899 -0.26296017
0.21626423 -0.97309339 -0.26710126
-0.23526458 -0.96072125 -0.26503071
0.13526103 -0.96615565 -0.26140726
0.15431222 -0.96264547 -0.26123467
0.1759643 -0.96547031 -0.26296017
0.18313438 -0.96413732 -0.26296017
-0.31139156 -0.95101744 -0.26813653
-0.27412823 -0.95036232 -0.26503071
0.18544824 -0.95582926 -0.26088959
0.20573975 -0.95562053 -0.26192489
0.21942721 -0.95653522 -0.26296017
0.22603965 -0.9510234 -0.26192489
0.24253803 -0.95359135 -0.26365033
0.25549978 -0.95553893 -0.26503071
0.27677146 -0.9576422 -0.26710126
0.29011509 -0.95368457 -0.26710126
-0.32996091 -0.94064176 -0.26710126
-0.30952787 -0.94756186 -0.26710126
0.25909212 -0.94255543 -0.26192489
0.2656661 -0.94072372 -0.26192489
0.27313858 -0.94260454 -0.26296017
0.28015435 -0.94457406 -0.26399544
-0.32340729 -0.93473589 -0.26503071
0.2572487 -0.93905473 -0.26088959
0.29626489 -0.93761492 -0.2634778
0.30666423 -0.93630314 -0.26399544
0.3126227 -0.93433064 -0.26399544
-0.35252985 -0.92415226 -0.26503071
0.33604756 -0.92341787 -0.26330528
0.34603977 -0.92453957 -0.26451308
0.3521167 -0.92017418 -0.26399544
-0.40083513 -0.91269505 -0.26710126
-0.36604035 -0.91888481 -0.26503071
0.32541108 -0.91765976 -0.26088959
0.34871745 -0.91320074 -0.26192489
0.37051359 -0.91292185 -0.26399544
-0.43333253 -0.90200979 -0.26813653
0.38084671 -0.90027511 -0.26192489
0.37463918 -0.89868623 -0.26088959
0.39642042 -0.89352071 -0.26192489
0.4018344 -0.89957535 -0.26399544
-0.47057065 -0.88315463 -0.26813653
0.40330353 -0.88619798 -0.26088959
0.42757013 -0.88763195 -0.26399544
-0.46754855 -0.87600869 -0.26606598
0.42177415 -0.87755752 -0.26088959
-0.51360041 -0.85884422 -0.26813653
0.45800251 -0.85920566 -0.26088959
0.47181916 -0.85611111 -0.26192489
-0.52104104 -0.84528637 -0.26606598
0.48306566 -0.84759295 -0.26140726
0.51945114 -0.82807606 -0.26192489
-0.56741375 -0.81488311 -0.26606598
0.54789287 -0.80953866 -0.26192489
0.55064273 -0.8029902 -0.26088959
0.56235552 -0.7948314 -0.26088959
0.57498407 -0.79052687 -0.26192489
0.59141356 -0.77831203 -0.26192489
0.62894547 -0.75837606 -0.26399544
0.6285972 -0.74860209 -0.26192489
0.63898802 -0.73975253 -0.26192489
0.6796537 -0.70257407 -0.26192489
0.72907871 -0.65692633 -0.26296017
0.76325679 -0.60451615 -0.26088959
0.7741642 -0.59683269 -0.26192489
0.82889098 -0.51814979 -0.26192489
0.8356024 -0.50725549 -0.26192489
0.83918667 -0.49372709 -0.26088959
0.84619409 -0.49705485 -0.26296017
0.84261304 -0.48785645 -0.26088959
0.88633883 -0.4029941 -0.26088959
0.88885337 -0.39741716 -0.26088959
0.29581538 -0.92357188 -0.25985435
0.35841927 -0.90112561 -0.25985435
0.36548558 -0.89828283 -0.25985435
0.38949472 -0.88813603 -0.25985435
0.40247321 -0.88233048 -0.25985435
0.41310081 -0.87313247 -0.25881904
0.4261924 -0.87112105 -0.25985435
0.42525136 -0.86727959 -0.25881904
0.43264222 -0.86793566 -0.25985435
0.44930142 -0.85506779 -0.25881904
0.46030727 -0.84919363 -0.25881904
0.48577404 -0.83935416 -0.25985435
0.491622 -0.83594233 -0.25985435
0.50382423 -0.82864523 -0.25985435
0.51462775 -0.82197934 -0.25985435
0.51828045 -0.81510615 -0.25881904
0.52662277 -0.81434649 -0.25985435
0.52347767 -0.80486655 -0.25726613
0.53794152 -0.80691427 -0.25985435
0.55182058 -0.79278421 -0.25881904
0.56113023 -0.78147078 -0.25778377
0.58523619 -0.75871122 -0.2567485
0.59609979 -0.75020611 -0.2567485
0.60024691 -0.75678021 -0.25881904
0.62128216 -0.72948796 -0.2567485
0.63190991 -0.72030145 -0.2567485
0.63789475 -0.71759343 -0.25726613
0.65524495 -0.71231401 -0.25933671
0.64685613 -0.70690972 -0.2567485
0.65703177 -0.70804095 -0.25881904
0.66376191 -0.6964075 -0.25778377
0.6709885 -0.69482887 -0.25881904
0.68586773 -0.68014568 -0.25881904
0.69471174 -0.67110974 -0.25881904
0.71528852 -0.64337075 -0.25778377
0.7252422 -0.62623316 -0.2567485
0.73589611 -0.61366969 -0.2567485
0.74447352 -0.61544442 -0.25881904
0.7547617 -0.59032112 -0.2567485
0.76136744 -0.59441757 -0.25881904
0.7748853 -0.56691426 -0.25726613
0.78307766 -0.56550086 -0.25881904
0.80488563 -0.51990706 -0.2567485
0.81524175 -0.518067 -0.25881904
0.82546329 -0.50902075 -0.25985435
0.83441389 -0.47497743 -0.25726613
0.8653149 -0.43786055 -0.25985435
0.8675763 -0.42464578 -0.25881904
2.0699892 -0.33081749 -0.25738806
0.90592289 -0.3238323 -0.25778377
2.0564947 -0.31432056 -0.25543818
0.91229302 -0.30542603 -0.25778377
2.0625675 -0.30052844 -0.25592566
2.0549915 -0.19787318 -0.25348827
-1.8776212 -0.75784618 -0.24861349
-1.8915933 -0.73332095 -0.24910097
-1.9062328 -0.70589399 -0.24958843
-1.899074 -0.69083124 -0.248126
-1.2274793 -0.33430275 -0.24728847
-1.2242876 -0.32347083 -0.24614362
-1.2262683 -0.31587785 -0.24614361
-1.2246346 -0.30635646 -0.24538037
-1.2304757 -0.29064566 -0.24576201
-1.2266915 -0.29801351 -0.24538037
-1.2420437 -0.28423777 -0.2476701
-1.2327411 -0.2895909 -0.24614362
-1.2269356 -0.27387622 -0.24436273
-1.2248662 -0.2619158 -0.24347229
-1.2325656 -0.25390634 -0.24461715
-1.2226868 -0.25320625 -0.24270906
-1.2439362 -0.24720861 -0.24652523
-1.2302003 -0.2458182 -0.24385393
-1.5108618 -0.23443408 -0.24216059
-1.4989461 -0.23392484 -0.24028336
-1.236851 -0.23739713 -0.24480796
-1.5163697 -0.22445868 -0.24278632
-1.5044504 -0.22403644 -0.2409091
-1.2450181 -0.22386426 -0.24588919
-1.2373734 -0.22933365 -0.24461715
-1.5470115 -0.21962142 -0.24747935
-1.2423527 -0.21258265 -0.24499875
-1.2387404 -0.21040694 -0.24423553
-1.2418692 -0.20358631 -0.24461715
-1.2432662 -0.16765451 -0.24385393
-1.9548801 -0.041290376 -0.24008264
-1.0574001 -0.040251829 -0.24429685
-1.5405909 -0.025008585 -0.24403779
-1.2623281 -0.010575659 -0.24538037
-0.89528048 0.044256292 -0.24018408
-1.0309353 0.15536208 -0.24069762
-0.88707662 0.15897255 -0.24147819
-0.88111156 0.1647363 -0.24018408
-0.88477075 0.17134136 -0.24147817
-1.2207758 0.18615088 -0.24003772
-1.4704795 -0.14470032 -0.23402599
-1.468336 -0.14630078 -0.23371312
-1.476289 -0.13578138 -0.23480816
-1.0224066 -0.12408745 -0.23777327
-1.028334 -0.11528635 -0.23889802
-1.030879 -0.10998715 -0.23934792
-1.0160022 -0.1023061 -0.23574872
-1.0018444 -0.096905097 -0.23237444
-0.99738622 -0.092349224 -0.23124968
-1.0066911 -0.086745866 -0.23327425
-1.2132025 -0.070590161 -0.23622155
-1.0039104 -0.072488859 -0.23237444
-1.2174784 -0.064302012 -0.23698479
-1.0014694 -0.065376379 -0.2316996
-1.2101935 -0.052415151 -0.23545831
-1.2062151 -0.053508341 -0.23469506
-1.010092 -0.051345751 -0.23349921
-1.0078964 -0.055827752 -0.2330493
-0.99610049 -0.057434812 -0.23034988
-1.1909102 -0.043252565 -0.23164214
-1.0260009 -0.044975713 -0.23709841
-0.89352661 -0.040574837 -0.23966645
-0.88595414 -0.036756508 -0.23759589
-0.87065178 -0.032686424 -0.23345479
-1.9054785 -0.028270364 -0.23398916
-1.4932206 -0.022154311 -0.23652895
-0.88542879 -0.023801047 -0.23733708
-0.87872255 -0.021782512 -0.23552534
-0.86503774 -0.02733596 -0.23190187
-1.8957031 -0.015052196 -0.23277047
-1.1877142 -0.011401647 -0.23087889
-0.88466901 -0.014515368 -0.23707826
-0.87499017 -0.015578561 -0.23449005
-1.9175991 -0.00066961756 -0.23545158
-1.9056863 -0.0029940091 -0.23398916
-0.87700939 -0.0094907125 -0.2350077
-0.86158448 -0.0052633067 -0.2308666
-0.86609477 0.0050452924 -0.23207442
-1.9215413 0.01039664 -0.23593907
-1.9135891 0.01235747 -0.23496412
-0.87306118 0.015391745 -0.23397243
-0.87873757 0.021168813 -0.23552534
-0.86326504 0.021700786 -0.23138423
-0.88775796 0.039846867 -0.23811352
-0.87832683 0.034202393 -0.23552534
-0.86291277 0.032848056 -0.23138423
-1.4609495 0.049230441 -0.23152302
-0.89131665 0.046244022 -0.2391488
-0.88712418 0.052083511 -0.23811352
-0.87243927 0.054809898 -0.23423123
-0.85775405 0.057423171 -0.23034896
-1.0168791 0.068610758 -0.2352988
-1.003351 0.066466518 -0.2321495
-0.85740912 0.062362202 -0.23034896
-1.0203543 0.074751057 -0.23619862
-1.0124887 0.075418495 -0.23439901
-1.8837442 0.088834874 -0.23155177
-1.0145569 0.086185418 -0.23507386
-1.0049522 0.084126517 -0.23282434
-1.0147014 0.095560074 -0.2352988
-1.0217649 0.10342672 -0.23709841
-0.85667372 0.14781909 -0.23293714
-0.84921175 0.14561598 -0.2308666
-1.0153316 0.15427965 -0.23709841
-0.87178701 0.16204834 -0.23759589
-0.85720724 0.24855508 -0.2391488
-1.4366931 0.26964828 -0.23152302
-1.1292522 0.38069347 -0.23164214
-1.1751692 -0.0439131 -0.22858919
-0.99480468 -0.044651944 -0.22989999
-1.1656718 -0.034189142 -0.2266811
-1.1640595 -0.018690363 -0.22629948
-0.85580397 -0.0032859985 -0.22931369
-0.85768867 0.0095807789 -0.22983132
-0.85442013 0.02692543 -0.22905487
-1.4451976 0.0474368 -0.22902009
-0.85301757 0.0690815 -0.22931369
-0.84365982 0.064836442 -0.22672549
-0.83525205 0.0728558 -0.22465494
-0.9836548 0.1550917 -0.22989999
-0.96374536 0.24279149 -0.22945009
-1.0979427 0.27884203 -0.22019359
-1.8446641 0.2812849 -0.22911438
-1.8246988 0.2805219 -0.226677
-1.8172226 0.28977057 -0.22594579
-1.3940642 0.28185228 -0.22526565
-1.8129474 0.29136041 -0.22545831
-1.8265306 0.30663976 -0.22740822
-1.8190714 0.30310261 -0.22643325
-1.82669 0.31749439 -0.22765194
-0.90771055 0.31175315 -0.22157678
-1.8302673 0.32009098 -0.22813943
0.88704473 0.38883176 -0.22360134
0.8966291 0.38633513 -0.22540097
0.8885572 0.39023498 -0.22405125
0.89299601 0.39945665 -0.22585087
0.88588607 0.41497198 -0.22585087
0.87726384 0.42402318 -0.22495104
0.86896223 0.43211314 -0.22405125
0.86901766 0.4406873 -0.22495104
0.85655802 0.45620772 -0.22405125
0.86384094 0.45285258 -0.22517601
0.83851254 0.48470119 -0.22360134
0.8184697 0.5286817 -0.22495104
0.80938637 0.53897774 -0.22450115
0.80598384 0.54405266 -0.22450115
-1.6416081 0.73949069 -0.22107102
-1.63876 0.73614448 -0.22058353
0.51973277 1.006533 -0.22019359
0.51624632 1.0160391 -0.22152926
0.51178044 1.0237861 -0.22248329
-1.5609869 0.72955871 -0.2115652
-1.5725455 0.73295552 -0.21302763
-1.6232644 0.74387205 -0.21924296
-1.56201 0.74136293 -0.21229641
-1.5558555 0.74043906 -0.2115652
-1.5466394 0.74817449 -0.21095586
-1.5390377 0.75696665 -0.21059024
-1.5437182 0.76094246 -0.21132146
-1.5302991 0.76564872 -0.21010277
-1.4853042 0.9194923 -0.21449007
0.58922297 0.93748349 -0.21523255
-1.5031034 0.96201384 -0.2191211
0.53882301 0.97406709 -0.21637741
0.52526999 0.99922061 -0.21943036
0.36309335 1.2788837 -0.21056081
0.36412805 1.2868032 -0.2118123
0.37255943 1.2802732 -0.21118654
0.35885078 1.3005841 -0.21368951
0.35232222 1.312597 -0.21525384
-1.5206248 0.76280028 -0.20888408
-1.5064218 0.76888543 -0.20766538
-1.5143025 0.77090961 -0.20864034
-1.5014929 0.77846617 -0.20766538
-1.4920291 0.78798908 -0.20717789
-1.4894778 0.78431565 -0.20669043
-1.4864914 0.79838622 -0.20717789
-1.476966 0.79094684 -0.20571546
-1.4783819 0.80503571 -0.20669043
-1.4652016 0.80018127 -0.20498425
-1.456618 0.81975734 -0.205228
-1.4557588 0.82128221 -0.205228
0.39517996 1.2278963 -0.20430344
0.40288675 1.2253892 -0.20430344
0.39074281 1.243817 -0.20649351
0.37865013 1.2661192 -0.20930934
0.37845153 1.2703015 -0.20993507
-2.3407052 2.4374554 -0.17710489
-2.3404891 2.443198 -0.17731424
-2.2594388 2.2936094 -0.16873114
