# .PCD v0.7 - Point Cloud Data file format
VERSION 0.7
FIELDS x y z
SIZE 4 4 4
TYPE F F F
COUNT 1 1 1
WIDTH 1486
HEIGHT 1
VIEWPOINT 0 0 0 1 0 0 0
POINTS 1486
DATA ascii
2.1145816 -0.23728393 0.50875223
2.1139443 -0.24743329 0.50869751
2.1146631 -0.25775129 0.50897199
2.1115432 -0.2675916 0.50833493
2.1049075 -0.27694198 0.50686294
2.1035955 -0.28697067 0.50666773
2.1028209 -0.29707211 0.50660622
2.1014173 -0.30708206 0.50639939
2.0961998 -0.3165063 0.50528562
2.094708 -0.32647547 0.50506765
2.0931711 -0.33643264 0.50484401
2.0898836 -0.34609267 0.50420624
2.0856061 -0.35556099 0.50333613
2.0860422 -0.36583158 0.5035997
2.0840559 -0.37567738 0.50328797
2.0822973 -0.38555768 0.50303572
2.0804946 -0.39542392 0.5027777
2.0804298 -0.40562555 0.50294125
2.0787497 -0.41551372 0.50272232
2.0758841 -0.42515355 0.50222367
2.0748334 -0.43516108 0.50216526
2.0715742 -0.44469434 0.50158107
2.0695088 -0.45447242 0.50128818
2.0581515 -0.46214557 0.49876589
2.0569007 -0.47205257 0.49867713
2.0579367 -0.48250017 0.49914318
2.0685499 -0.49527732 0.50192004
2.0706334 -0.50607926 0.50264978
2.0709982 -0.51648635 0.5029707
2.0659218 -0.52552164 0.50198466
2.0588069 -0.53399092 0.50051069
2.0523431 -0.5425778 0.49919692
2.0574765 -0.55425358 0.50068641
2.0579054 -0.56470054 0.50104535
2.0553186 -0.57432246 0.50068033
2.0551736 -0.58463252 0.50090975
2.0545471 -0.59481806 0.50102741
2.0618703 -0.60736495 0.50307399
2.0597172 -0.61715394 0.50283182
2.0465498 -0.62357128 0.49992436
2.0493677 -0.63484192 0.50089407
2.0464847 -0.64435852 0.50048596
2.0435622 -0.65385163 0.50007188
2.0364699 -0.66197401 0.49864846
2.0334759 -0.67140025 0.4982236
2.0477586 -0.68662453 0.50200433
2.0458703 -0.69649374 0.50185806
2.0415263 -0.70551246 0.50111777
2.0369861 -0.71443737 0.50033253
2.0341163 -0.72393149 0.49995747
2.0366333 -0.73536611 0.50090015
2.0337436 -0.74486214 0.50052774
2.0216072 -0.75090641 0.49789938
2.0412774 -0.76885253 0.50304788
2.0378869 -0.77819884 0.50256485
2.0344238 -0.78750306 0.50206703
2.0214531 -0.79305494 0.49924257
2.0243914 -0.80483025 0.50031847
2.0230877 -0.814946 0.5003584
2.0214095 -0.82491708 0.50030994
2.0269275 -0.83787251 0.50203317
2.023236 -0.84704632 0.50149763
2.0246346 -0.85836518 0.50221717
2.0127225 -0.86399853 0.499663
2.0153296 -0.87584811 0.50068665
2.0114985 -0.88491166 0.50012696
2.0093322 -0.89470011 0.49998069
2.0120132 -0.90667593 0.50103462
2.0135541 -0.91818333 0.50181133
2.009568 -0.92717761 0.50122476
2.0061865 -0.93643516 0.50078988
2.0029509 -0.9457494 0.50039333
2.0064423 -0.95826906 0.50166762
2.0073378 -0.96959537 0.50230241
2.0031712 -0.9784804 0.50168324
2.0070763 -0.99133539 0.50307292
2.0169146 -1.0072234 0.50594419
2.0176449 -1.018641 0.50655431
2.0133049 -1.0275016 0.50590408
1.9939859 -1.0286061 0.50151753
1.9857019 -1.0352811 0.49988174
1.9852333 -1.0460111 0.50019896
1.9970719 -1.0633186 0.50359803
1.9868718 -1.0689175 0.50148702
1.972589 -1.0722079 0.49835134
1.9680943 -1.0807431 0.49766743
2.195015 1.1426287 0.54785812
2.1726112 1.1189426 0.54177147
2.1666934 1.1038797 0.53977615
2.1924341 1.1047627 0.54560864
2.1971498 1.0949783 0.54624319
2.1950014 1.081809 0.54518682
2.1893344 1.0669878 0.54326844
2.1939151 1.0571626 0.54387844
2.2008002 1.0484061 0.54505676
2.1845062 1.0287584 0.54054224
2.1791489 1.0143723 0.53872311
2.1724713 0.99946839 0.53658664
2.1666222 0.98503816 0.5346601
2.1660235 0.97304034 0.53402507
2.1702132 0.96318614 0.53456515
2.1699049 0.95135516 0.53400862
2.1649213 0.93754268 0.53231525
2.1683388 0.92737776 0.5326767
2.1668923 0.91516227 0.53185594
2.1644719 0.90258461 0.53080291
2.1509027 0.88550168 0.52704382
2.1545758 0.8755433 0.52748418
2.1555271 0.86448729 0.52726656
2.1479113 0.85008067 0.52497476
2.1406803 0.83592772 0.52278364
2.1433759 0.82566988 0.5230037
2.1460912 0.8154152 0.52323169
2.1419132 0.80259264 0.52179652
2.139081 0.79033053 0.52069253
2.128834 0.77544165 0.51780421
2.1322777 0.76555866 0.5182265
2.1276038 0.75281334 0.51669538
2.1216061 0.73968118 0.51485199
2.1275909 0.73071462 0.51589853
2.1264501 0.71931773 0.51523417
2.1294599 0.70932537 0.51557213
2.1168187 0.69423401 0.51215589
2.1196458 0.68424398 0.51245981
2.11799 0.67283416 0.51169258
2.1163116 0.66145474 0.51092529
2.1144328 0.65005177 0.51011539
2.1173503 0.64012492 0.51045805
2.1038988 0.62536711 0.50689131
2.0983603 0.61305571 0.50522411
2.0984292 0.60241425 0.50490224
2.0980854 0.59167552 0.5044865
2.0942233 0.57999372 0.50323689
2.0893693 0.56810236 0.50175697
2.0949733 0.55904073 0.50277358
2.0904796 0.54732323 0.50139028
2.0927072 0.53737652 0.50161171
2.0951133 0.52746928 0.50187987
2.097497 0.5175491 0.50214684
2.092442 0.5058428 0.50065213
2.0767021 0.49170089 0.49662861
2.0789266 0.48184919 0.49687415
2.0700758 0.46950752 0.49449927
2.0772064 0.46077332 0.49591699
2.0792928 0.4509024 0.49614373
2.0840049 0.44157526 0.49699616
2.0629373 0.42694551 0.49175587
2.0568254 0.41552177 0.49006084
2.0667703 0.40729636 0.49216551
2.0686162 0.39745036 0.49236035
2.0661364 0.38680026 0.491539
2.0551264 0.37465328 0.48871091
2.0568242 0.36484998 0.48888662
2.0569248 0.35477072 0.4886907
2.058532 0.34495121 0.48885474
2.0544355 0.33421338 0.48768029
2.0545354 0.32417905 0.48749951
2.0462058 0.31288588 0.48534051
2.049051 0.30331221 0.48581639
2.0368085 0.29159686 0.48274967
2.0381267 0.281854 0.48287719
2.0370028 0.27178797 0.48243588
2.0459244 0.26301038 0.48435891
2.0513744 0.25373399 0.48547059
2.0525184 0.24391174 0.485576
2.042141 0.23279974 0.48298347
2.0458314 0.2233 0.48369697
2.0404513 0.21284664 0.48228842
2.0403876 0.20296977 0.4821319
2.0316598 0.19229995 0.47995037
2.0320601 0.18252081 0.47991341
2.0221624 0.17189175 0.47746983
2.0224755 0.16216043 0.47742325
2.0213306 0.15232535 0.47704047
2.0201261 0.14250281 0.47664914
2.0136113 0.13235947 0.47502053
2.0137486 0.12267461 0.47495371
2.011893 0.11288549 0.47442609
2.0153029 0.10337743 0.47513488
2.0145626 0.093656465 0.47487834
2.0234511 0.084327534 0.47687769
2.0111065 0.074177757 0.47391903
2.0186632 0.064746633 0.47561705
2.0042253 0.054690961 0.47218055
2.0123734 0.045237672 0.4740268
2.0046799 0.035460375 0.47217703
2.0126824 0.0259292 0.47399908
2.0048981 0.016226698 0.47213879
1.9886136 0.0065886248 0.46829885
1.9886107 -0.0029493817 0.4682667
1.9875699 -0.012478309 0.46799719
2.0005193 -0.022179434 0.47099948
1.9857353 -0.031510487 0.46753126
1.9963211 -0.04127387 0.46999171
1.9887142 -0.050641179 0.46820953
1.9884453 -0.060172807 0.46814573
1.9818425 -0.069469243 0.46660814
1.9775248 -0.078799576 0.46560916
1.9806359 -0.088436157 0.46634972
1.9938433 -0.098622799 0.46945286
2.1143026 -0.12510909 0.49763742
2.1267738 -0.1360864 0.50058663
2.1261077 -0.14626135 0.50047326
2.1233635 -0.1562777 0.4998799
2.1210384 -0.1663058 0.49938965
2.1314082 -0.17739357 0.50187069
2.1237571 -0.18697043 0.50014675
2.125448 -0.19736171 0.50061101
2.121537 -0.20721895 0.49977118
2.1103511 -0.21628758 0.49723583
2.1039822 -0.2257795 0.49583125
2.1015112 -0.23566005 0.49534288
2.1108184 -0.24691983 0.49761447
2.1097934 -0.25700229 0.49747503
2.1089258 -0.26710272 0.49737757
2.1072006 -0.27708882 0.49708456
2.1032977 -0.28676629 0.49628675
2.1019399 -0.29677787 0.49608967
2.1037054 -0.30724597 0.49662918
2.1078892 -0.31810895 0.4977406
2.1078396 -0.3283565 0.49786574
2.0943282 -0.33643171 0.49484029
2.0921757 -0.34628204 0.49448171
2.0899923 -0.35611647 0.49412057
2.0888755 -0.36612901 0.49401459
2.0865946 -0.37593022 0.49364015
2.0845613 -0.38576677 0.49332857
2.0811737 -0.39533591 0.49270362
2.0779333 -0.4049128 0.4921177
2.0821388 -0.41596761 0.49328637
2.0781391 -0.42538571 0.49253133
2.0782151 -0.43563715 0.49273932
2.0874588 -0.44788104 0.49510947
2.0735176 -0.45511094 0.49202833
2.0714045 -0.4648867 0.49173498
2.0623603 -0.47305688 0.48981309
2.0726805 -0.48571378 0.49245858
2.0707924 -0.49555072 0.49223217
2.0700853 -0.50567365 0.49228871
2.0679045 -0.51543558 0.49200213
2.0694509 -0.52614307 0.4925999
2.0631082 -0.53482711 0.49133888
2.0545642 -0.54287964 0.48956087
2.0626807 -0.55536759 0.4917255
2.0601311 -0.56501567 0.49137306
2.0569854 -0.57448763 0.49088344
2.053936 -0.58397239 0.49042046
2.0567665 -0.59515136 0.49135488
2.0588536 -0.60615653 0.49211827
2.056088 -0.61574191 0.4917354
2.0484865 -0.62383932 0.49020821
2.0456471 -0.63335741 0.4898147
2.0546854 -0.64661479 0.49224773
2.0517502 -0.6561414 0.49184033
2.0449526 -0.66439831 0.49051744
2.0419447 -0.67385936 0.49009931
2.0450065 -0.68534875 0.49113065
2.0457249 -0.69608921 0.49160859
2.0426896 -0.70555687 0.49119556
2.0359697 -0.71371818 0.48990649
2.0327613 -0.72308254 0.48945817
2.0295155 -0.73242068 0.48900414
2.0359232 -0.74528795 0.49086207
2.0357127 -0.7557795 0.49114218
2.0400152 -0.7679925 0.49250719
2.0365887 -0.77731508 0.49202543
2.0325668 -0.78639233 0.49140364
2.0269344 -0.79481637 0.49039799
2.0285082 -0.80607253 0.49112529
2.0252452 -0.81541568 0.49069443
2.0266018 -0.82663465 0.49137753
2.0290856 -0.83835655 0.49233627
2.0253885 -0.84753615 0.49181083
2.0263288 -0.85866773 0.49240592
2.0148096 -0.86447752 0.48999915
2.0071223 -0.87185502 0.48851708
2.0022733 -0.88042384 0.48772171
2.0073919 -0.89340687 0.48933831
2.0075552 -0.90423244 0.48976123
2.0156825 -0.91871792 0.49211666
2.0123274 -0.92801237 0.49169573
2.0273826 -0.9458946 0.49574298
2.0177579 -0.95230103 0.49380779
2.0186899 -0.96367311 0.4944374
2.0095005 -0.97018766 0.49260947
2.005275 -0.9790532 0.49198934
2.0010722 -0.9879083 0.49137631
2.0067635 -1.0016859 0.49317697
2.0197566 -1.0192386 0.49676487
2.0191503 -1.0300148 0.49704039
2.0110345 -1.0369341 0.49548343
1.9916975 -1.0379369 0.49118111
1.9978555 -1.0521896 0.49311593
1.9989191 -1.0638224 0.493808
1.9944335 -1.0725058 0.49314252
1.9746349 -1.0728397 0.48871875
1.9701325 -1.0813802 0.48804778
2.1682231 1.1282915 0.53009254
2.1730149 1.118675 0.53072959
2.1689391 1.1045465 0.52922028
2.1947091 1.1054298 0.53493756
2.1994324 1.0956391 0.535559
2.1972842 1.0824615 0.53452271
2.1841943 1.0640396 0.53085148
2.1819019 1.0509565 0.52979237
2.1823061 1.0392017 0.52938735
2.1767371 1.0246772 0.52754915
2.1731601 1.0111612 0.52619594
2.1747444 1.0000688 0.52608752
2.164356 0.98358232 0.52311021
2.168294 0.97362399 0.52357489
2.1724901 0.96376365 0.52410364
2.1697655 0.95087248 0.52297896
2.166683 0.93788308 0.52177393
2.1651225 0.92559886 0.52093762
2.164886 0.91391206 0.52042204
2.1667521 0.90312362 0.52041191
2.1543162 0.88649797 0.51699883
2.1568489 0.87606502 0.51715696
2.1544402 0.86366403 0.5161435
2.1447918 0.84847051 0.51341528
2.1429434 0.83642459 0.5125466
2.1459267 0.82626873 0.51282889
2.1483626 0.81589901 0.5129844
2.1441815 0.80306846 0.51157671
2.1421466 0.79109144 0.51068264
2.1351233 0.77735698 0.50861454
2.1373944 0.76702762 0.50874889
2.1298621 0.75325799 0.50657302
2.1225984 0.7396819 0.50446779
2.1271594 0.7302289 0.50515598
2.1281128 0.71954107 0.50499755
2.1274071 0.7083174 0.50445294
2.1190708 0.69464219 0.502119
2.1221802 0.684735 0.50248164
2.1149278 0.67155534 0.50041503
2.1125865 0.65999115 0.4995077
2.1155484 0.65008622 0.49984896
2.1196072 0.64049977 0.50045085
2.1190755 0.62954015 0.49998134
2.1089566 0.61583203 0.49727386
2.1032567 0.60350174 0.49560729
2.1039469 0.593032 0.49544016
2.102217 0.58191037 0.49471247
2.0916007 0.56843328 0.49191663
2.0941656 0.5585618 0.49220225
2.0940955 0.54799968 0.49187782
2.1020665 0.53949839 0.49343085
2.0973737 0.52778077 0.49203897
2.0998633 0.51787972 0.49232382
2.0960512 0.50646406 0.49114794
2.0835488 0.49306861 0.48795882
2.0822265 0.48237491 0.48737398
2.0722907 0.46977934 0.48479536
2.0758388 0.460253 0.48535156
2.077924 0.45039323 0.48557273
2.0799651 0.44051829 0.48578799
2.0768831 0.42959076 0.4848212
2.0753326 0.41901329 0.48421469
2.0755191 0.40880269 0.48401517
2.0773728 0.39891994 0.48420608
2.0683494 0.3870236 0.48188773
2.0573277 0.37486956 0.47911474
2.0590274 0.36506057 0.47928631
2.0620494 0.35547191 0.47976768
2.0550766 0.34421578 0.47794771
2.054806 0.33411303 0.47767952
2.0539553 0.32393423 0.47728273
2.051523 0.3135367 0.47652665
2.0529425 0.30373439 0.47666308
2.0389912 0.29176548 0.4732658
2.038996 0.28183851 0.47308755
2.0391455 0.27194008 0.47294754
2.0404143 0.26219091 0.47307
2.0415573 0.25242326 0.47316828
2.0337284 0.24160807 0.4712097
2.0328698 0.23165548 0.47085857
2.0442483 0.22302678 0.47332284
2.0452511 0.21323754 0.4734084
2.0462084 0.20344183 0.47348854
2.0338483 0.19241384 0.47051802
2.0342381 0.18262826 0.47047865
2.0326195 0.17267933 0.46998382
2.019707 0.16187187 0.46690494
2.0204265 0.1521915 0.46695709
2.0166321 0.14220136 0.46597984
2.015769 0.13243918 0.46567965
2.0159063 0.12274899 0.46561363
2.0157809 0.11304796 0.46549258
2.0162735 0.10338281 0.46551797
2.0115321 0.093484715 0.46435019
2.0119333 0.083839282 0.46436501
2.0057955 0.073965818 0.46288827
2.0142279 0.064591385 0.46475095
1.9954509 0.054452658 0.46039301
2.0147169 0.045273572 0.46474379
2.0068269 0.035487086 0.46288717
2.014838 0.025950767 0.46467268
2.0070453 0.016242955 0.46284872
1.9986862 0.0066100308 0.46090069
1.9986833 -0.0029711169 0.46086854
1.9986359 -0.012551375 0.46083125
2.002661 -0.022184037 0.46173009
2.0049093 -0.031823687 0.46222764
2.0047154 -0.041430142 0.46217188
1.9982322 -0.050863445 0.46068338
1.9862255 -0.060058337 0.45793706
1.9759231 -0.069202736 0.45558533
1.9755677 -0.078665137 0.45551261
1.9792409 -0.088313431 0.45636582
1.9823104 -0.097968236 0.45708609
2.1326833 -0.13639081 0.49155831
2.1353123 -0.14682084 0.4922007
2.1256337 -0.15635458 0.49003348
2.1233058 -0.16638812 0.48955256
2.1268823 -0.17690489 0.49042749
2.1260271 -0.18706404 0.49029392
2.1251247 -0.19721605 0.49015483
2.1220262 -0.2071473 0.48951823
2.12375 -0.21755651 0.48999044
2.1255748 -0.22799978 0.49049124
2.124027 -0.23808414 0.49022511
2.1185083 -0.24769031 0.48905459
2.1120465 -0.25713447 0.48767269
2.1111777 -0.26724049 0.48757684
2.1095526 -0.2772457 0.48731273
2.1055431 -0.28691497 0.48650703
2.1039245 -0.29689527 0.48625419
2.1130495 -0.30845279 0.48847023
2.1115918 -0.31849644 0.48826468
2.1100881 -0.32852834 0.48805356
2.1082618 -0.33850339 0.48777324
2.1066675 -0.3485097 0.48755103
2.0935194 -0.35652712 0.48468009
2.0911024 -0.36632222 0.48427761
2.0888183 -0.37612894 0.48391029
2.0867825 -0.3859711 0.48360464
2.0885603 -0.3965342 0.48418069
2.085182 -0.40611556 0.48357567
2.0832844 -0.41597375 0.48331586
2.0794313 -0.42542315 0.48261032
2.0783672 -0.43543562 0.48255134
2.0759773 -0.44516471 0.48219156
2.0739062 -0.454954 0.4819096
2.0717921 -0.46472684 0.48162207
2.0703983 -0.47465879 0.48150513
2.0686212 -0.48450094 0.48130423
2.0729928 -0.49581811 0.48252732
2.070699 -0.50555801 0.48221636
2.0701005 -0.51571459 0.48230138
2.0716476 -0.52642828 0.48288715
2.0692208 -0.53613865 0.48255843
2.0667517 -0.54582947 0.48222411
2.0672419 -0.55631155 0.48257908
2.0654612 -0.56618983 0.48241264
2.0591652 -0.57480145 0.48120362
2.0561116 -0.58429188 0.48074961
2.0544288 -0.59416664 0.48061749
2.0657768 -0.60789013 0.48351485
2.0630009 -0.61750335 0.48313844
2.0601847 -0.62709397 0.48275641
2.0540545 -0.63564539 0.48160732
2.0449266 -0.64320707 0.47976327
2.0460677 -0.65398723 0.48031223
2.0431004 -0.66345966 0.47990862
2.0440986 -0.67423278 0.48043296
2.0478528 -0.68596083 0.4816047
2.0447531 -0.69540948 0.48118195
2.0397038 -0.70417118 0.48030704
2.0350103 -0.71302575 0.47951791
2.0333204 -0.7229231 0.4794341
2.0409606 -0.73619682 0.48153737
2.0380621 -0.74570465 0.48117906
2.0378499 -0.75620264 0.48145339
2.0415936 -0.76821095 0.48265931
2.0387239 -0.77775127 0.48231873
2.0399768 -0.78888053 0.48294911
2.0341735 -0.79727316 0.48192564
2.0353353 -0.80839884 0.48254213
2.0310781 -0.81737375 0.48188761
2.028127 -0.82685971 0.48154309
2.0220253 -0.8350333 0.48045883
2.0244031 -0.84671783 0.48137608
2.0206718 -0.85585833 0.48085606
2.0146122 -0.86398178 0.47978827
2.0092101 -0.87234992 0.47887745
2.004354 -0.88092422 0.47809759
2.0094762 -0.89391506 0.47968188
2.0084367 -0.90420586 0.47981164
2.0303228 -0.92496753 0.4853811
2.02987 -0.93567699 0.48566064
2.0294793 -0.94643468 0.48595834
2.0249033 -0.9552356 0.4852643
2.0207732 -0.96422434 0.484678
2.0115721 -0.97074306 0.48288608
2.0054712 -0.97870117 0.48183265
2.0014923 -0.98766565 0.48128608
1.9993879 -0.99754781 0.48118863
2.0218289 -1.019824 0.48695767
2.0194008 -1.0296786 0.48679253
2.0150144 -1.0385216 0.48616084
2.0234454 -1.0540239 0.48860058
2.005424 -1.0557082 0.48470515
2.009912 -1.0692024 0.48620635
2.0002015 -1.0751344 0.48430258
1.9956738 -1.083801 0.48364341
1.9911211 -1.0924289 0.48297906
2.1946168 1.1537074 0.52577364
2.1704206 1.1289601 0.51950127
2.1752198 1.1193376 0.52012497
2.1722381 1.1057547 0.51890504
2.202518 1.1088742 0.52556801
2.2027142 1.0968029 0.52510214
2.1995237 1.0831013 0.52383929
2.1795657 1.0613506 0.51862174
2.1841304 1.0515769 0.51920259
2.1935723 1.0440873 0.5209347
2.1805193 1.0260079 0.51736921
2.1799991 1.0138879 0.51676154
2.1658752 0.99558997 0.51296067
2.1665771 0.98416084 0.51265121
2.1705213 0.97419631 0.51310593
2.1746552 0.96429962 0.51360738
2.1715922 0.95125395 0.51242542
2.1638849 0.93627214 0.51016229
2.1641467 0.92478031 0.50976908
2.1649814 0.91355145 0.50951362
2.1512415 0.89631075 0.5058611
2.1565418 0.88701618 0.506657
2.1570034 0.87574041 0.50632781
2.157618 0.86454558 0.50603831
2.14043 0.84638178 0.50161272
2.1441679 0.83652645 0.50206012
2.1478672 0.82664108 0.50250125
2.1505907 0.81637341 0.50271881
2.1429515 0.80225146 0.50053787
2.1435711 0.79125774 0.50027668
2.1373413 0.77780777 0.4984346
2.1402841 0.76770973 0.49871996
2.143034 0.75753623 0.49896392
2.1287692 0.74147856 0.49528357
2.1296594 0.73074806 0.49510849
2.1329236 0.72082615 0.49548459
2.1312904 0.70927596 0.49473602
2.1263425 0.69668728 0.49322963
2.1243935 0.68512928 0.49241903
2.1130705 0.67066312 0.48945937
2.1160798 0.66076934 0.48979932
2.1190472 0.65085226 0.49013314
2.1241117 0.64155281 0.49095133
2.1212893 0.62990099 0.4899652
2.1208124 0.61897576 0.48952165
2.1034279 0.60327101 0.4852137
2.1049197 0.5930286 0.48523259
2.1044159 0.58224285 0.48479939
2.1021941 0.57101864 0.48397878
2.0994294 0.55969137 0.48303944
2.1019347 0.54977429 0.48330775
2.1044436 0.53985047 0.48358071
2.0995703 0.52808124 0.48217598
2.101939 0.51814413 0.48242614
2.0982473 0.50675207 0.48130143
2.0879145 0.49385929 0.47867203
2.0901513 0.48396379 0.4789072
2.0787923 0.47101587 0.47605804
2.0746381 0.45977426 0.47485223
2.0767226 0.4499248 0.47506782
2.0821464 0.44076803 0.47604507
2.0867472 0.43140399 0.47683924
2.0810111 0.41994855 0.47529528
2.0794115 0.40936762 0.47469428
2.0851068 0.40019831 0.47574934
2.0813632 0.38924414 0.47467285
2.0608528 0.3753272 0.46981105
2.0625556 0.36550617 0.4699786
2.0763862 0.35774115 0.47289032
2.0669186 0.34600878 0.47054344
2.0587955 0.33459571 0.46850681
2.0561113 0.32411772 0.46770367
2.0524955 0.31353679 0.46669585
2.0539157 0.3037346 0.46682882
2.0548975 0.29386741 0.4668676
2.0510938 0.2833508 0.46583328
2.0505056 0.27330208 0.46552852
2.0517409 0.26349846 0.46563923
2.0562842 0.25409326 0.46649894
2.0358634 0.24174587 0.46174797
2.0369532 0.23200537 0.46184152
2.0379977 0.2222577 0.4619298
2.0473983 0.21335986 0.46390045
2.0457046 0.20330116 0.4633826
2.0363245 0.19255628 0.46114379
2.0361435 0.18271375 0.46097639
2.03719 0.17298111 0.46108946
2.0377309 0.16320531 0.46109405
2.0362484 0.15328234 0.46064952
2.0172567 0.14218314 0.45628306
2.0174391 0.13248931 0.45622304
2.0100594 0.12235461 0.45447254
2.0173938 0.11308888 0.45602587
2.0083804 0.10295381 0.45391983
2.008826 0.09332861 0.4539389
2.0092268 0.083701029 0.45395288
2.0149326 0.074257478 0.45515999
2.0152447 0.064600594 0.45516369
1.9955555 0.054439124 0.45069346
2.0045969 0.045055404 0.45266214
1.9911144 0.035234723 0.44959268
2.0121534 0.025920123 0.4542565
2.0122402 0.016278144 0.45423457
2.0078447 0.0066305483 0.45321441
2.0049016 -0.0029792595 0.45252439
2.0007322 -0.01255036 0.45156491
2.0071492 -0.022219179 0.45297948
2.0070117 -0.031832863 0.45293218
2.0068176 -0.041444413 0.4528771
1.9877092 -0.050537769 0.44859478
1.9874169 -0.060053956 0.44852766
1.9871036 -0.069567978 0.44846067
1.9802488 -0.078808099 0.44693488
1.9961721 -0.089042917 0.45051086
1.9985219 -0.098736852 0.45105454
2.1408482 -0.13684395 0.48299283
2.1418431 -0.1471927 0.48325557
2.1396677 -0.15731694 0.48281386
2.1347864 -0.16720846 0.48177144
2.1291094 -0.17699063 0.48055583
2.128253 -0.18715522 0.48042455
2.1251969 -0.19710954 0.47980577
2.1242476 -0.20724925 0.47966385
2.1259727 -0.21766402 0.48012614
2.1249287 -0.22780068 0.47997323
2.1164167 -0.23708589 0.47815159
2.1148806 -0.24712218 0.47789806
2.1141043 -0.25724471 0.47781989
2.1130304 -0.26732939 0.47767988
2.112114 -0.27743271 0.47758025
2.1107965 -0.28748029 0.47739547
2.1134799 -0.29809412 0.47811347
2.1131041 -0.30829212 0.47815004
2.1116457 -0.31833103 0.47794855
2.1120155 -0.3286525 0.47816241
2.103142 -0.33749115 0.47630489
2.1039879 -0.34787458 0.47663516
2.0987282 -0.35722896 0.47559804
2.0970483 -0.36717483 0.47537008
2.0953236 -0.37710735 0.47513667
2.0978112 -0.3878189 0.47585562
2.0959938 -0.39774367 0.47561082
2.0901968 -0.40688279 0.47447461
2.0882943 -0.41675991 0.47421941
2.0858753 -0.42652461 0.47385228
2.083925 -0.43637732 0.47359526
2.0818913 -0.44620594 0.47332376
2.0760674 -0.45519224 0.47220165
2.0739505 -0.46497062 0.47191975
2.071768 -0.47472686 0.47162718
2.0703511 -0.48465613 0.47151193
2.0681047 -0.49438643 0.47121355
2.0677507 -0.50457346 0.47134718
2.0720997 -0.51594865 0.47254911
2.0631983 -0.52400142 0.47075793
2.0674448 -0.5354014 0.47194621
2.0706251 -0.54657692 0.47289848
2.0693896 -0.5566076 0.47285521
2.0688722 -0.56683987 0.47297892
2.0662689 -0.5764994 0.47263381
2.0638421 -0.58620006 0.47233254
2.0611563 -0.59581834 0.47197631
2.0681226 -0.60827631 0.47381717
2.0653427 -0.61789596 0.47344816
2.0625222 -0.6274932 0.4730736
2.0561817 -0.6359877 0.47190127
2.0630476 -0.64860183 0.47373956
2.0531068 -0.655918 0.47175375
2.0501282 -0.66541874 0.47135714
2.0496962 -0.67575026 0.47154498
2.0499682 -0.68633288 0.47189757
2.0468643 -0.69578719 0.47148311
2.0418086 -0.7045542 0.47062579
2.0386312 -0.71394873 0.47020066
2.0354161 -0.72331733 0.4697701
2.0457678 -0.73757637 0.47245005
2.0443251 -0.74763918 0.47243381
2.0440285 -0.75813413 0.47268403
2.0365596 -0.76594341 0.47129187
2.0402567 -0.7779634 0.47246596
2.0367851 -0.78726661 0.47199744
2.0380406 -0.79841077 0.47261894
2.0367491 -0.8085767 0.47265837
2.0331585 -0.8178246 0.47217157
2.0302029 -0.82731622 0.4718338
2.0315197 -0.83856583 0.47248432
2.0264716 -0.84718639 0.4716697
2.0227351 -0.85633242 0.47115991
2.0189648 -0.8654474 0.47064465
2.0248325 -0.87873471 0.47236168
2.0063953 -0.8814137 0.46845651
2.0115206 -0.89441234 0.47000843
2.010478 -0.90470952 0.47013527
2.0323844 -0.92548323 0.47559148
2.0278502 -0.93431723 0.47491753
2.0226247 -0.94280422 0.47408473
2.0185359 -0.95179576 0.47351778
2.0228167 -0.96476388 0.47490141
2.0119054 -0.97046638 0.47274959
2.0074949 -0.97924984 0.47211301
2.0035095 -0.9882198 0.4715772
2.0108473 -1.0028234 0.47368842
2.0141048 -1.015473 0.47485161
2.0214291 -1.0302576 0.47697094
2.0170357 -1.039106 0.47635174
2.0254724 -1.0546175 0.47874159
1.9935086 -1.0489719 0.47165817
2.0029566 -1.0650355 0.47429013
1.9984564 -1.0737298 0.47365031
1.9976627 -1.0844131 0.47388342
1.9931024 -1.0930461 0.47323212
2.1844361 1.1601335 0.5126757
2.191119 1.1514144 0.51371527
2.1725752 1.1296157 0.50889122
2.1875961 1.1252083 0.51187336
2.1813302 1.1099002 0.50991368
2.2047119 1.1095169 0.51483154
2.1937602 1.0919235 0.5117929
2.1904347 1.0782089 0.51052672
2.1817439 1.0619648 0.50802583
2.1834323 1.0508063 0.50792849
2.187964 1.0410013 0.50848985
2.1827054 1.0266005 0.50679696
2.1821864 1.014473 0.50620121
2.1680508 0.99616402 0.50247771
2.1687551 0.98472792 0.50217384
2.1730385 0.97490579 0.50269502
2.1699941 0.9618386 0.50153768
2.1673498 0.94900429 0.50047696
2.1668496 0.93714583 0.4999122
2.1652541 0.92485422 0.49910095
2.1591585 0.91072077 0.49726599
2.1446736 0.89320922 0.49352193
2.1486003 0.88339204 0.49398771
2.1524897 0.87354302 0.49444735
2.1474686 0.86013526 0.4928804
2.1491888 0.84944993 0.49285331
2.1476901 0.83752501 0.49209782
2.1582513 0.8302446 0.49408647
2.1619306 0.82028592 0.49451327
2.1515272 0.80508357 0.49174935
2.1424389 0.7904951 0.48929146
2.1404688 0.77859342 0.4884527
2.1438155 0.76862645 0.48882166
2.1472411 0.75867534 0.4892115
2.1309385 0.74189866 0.48514849
2.1318307 0.73116171 0.48497617
2.1351249 0.72124231 0.4853496
2.1383522 0.71128869 0.48571116
2.1366441 0.69972068 0.48496458
2.1316383 0.68713778 0.48348105
2.1192973 0.67232025 0.48035416
2.1182425 0.66114128 0.47977167
2.1212139 0.65121835 0.48009786
2.1262839 0.64191335 0.4808985
2.1234596 0.63025475 0.47993189
2.1225753 0.61920518 0.4794054
2.1185262 0.60728544 0.47817513
2.0995996 0.59127557 0.47362167
2.0993648 0.58059496 0.47325796
2.1019866 0.57070309 0.47353727
2.1045654 0.56079155 0.47381067
2.1083753 0.55119056 0.47436267
2.1079302 0.54048908 0.47396922
2.0997767 0.52789146 0.47186232
2.1127784 0.52055007 0.47447488
2.1045129 0.50801665 0.47235391
2.094501 0.49517357 0.46985117
2.0958707 0.48505118 0.46988663
2.0895362 0.4732058 0.46821427
2.0862238 0.46210039 0.46721929
2.0822387 0.450899 0.46608064
2.0842845 0.44101283 0.46628577
2.0888903 0.43164355 0.4670628
2.0834785 0.42024738 0.46562311
2.085386 0.41034067 0.46581098
2.087249 0.4004204 0.46599326
2.0835016 0.38946012 0.46493825
2.0767014 0.37800142 0.46321347
2.0784173 0.36810976 0.46337792
2.0792429 0.35806245 0.46335012
2.0794163 0.34791163 0.46318281
2.056957 0.3341485 0.45802259
2.0543199 0.32369173 0.45724672
2.0542119 0.31365183 0.45703411
2.0510001 0.30317226 0.4561418
2.0563381 0.29393649 0.4571397
2.0532022 0.2835086 0.45627415
2.0569298 0.27401942 0.45692584
2.034338 0.26118568 0.4517861
2.0473044 0.25289035 0.45448211
2.0361905 0.2416756 0.451882
2.03879 0.2321067 0.45230499
2.0398355 0.22235507 0.45239079
2.0468493 0.21320954 0.45379341
2.0468245 0.20332046 0.45365295
2.0384178 0.19266528 0.45167574
2.0361197 0.18263231 0.45104626
2.0390537 0.1730607 0.45157087
2.0255728 0.16218877 0.44849622
2.0482087 0.15409167 0.45335513
2.0269704 0.1427871 0.448589
2.0238385 0.13284113 0.44780222
2.0200572 0.12289202 0.44687799
2.0205956 0.11321668 0.44690639
2.0199604 0.10348286 0.44668224
2.0141225 0.093528494 0.44532251
2.00929 0.083673432 0.44418842
2.0096459 0.074048355 0.44419652
2.0061698 0.064308003 0.44336981
2.0046017 0.0546517 0.4429661
1.9978255 0.044906385 0.44142652
1.9931598 0.035260931 0.44035441
1.9934876 0.025716113 0.44038087
2.0098653 0.016267512 0.44392672
2.0099068 0.0066419775 0.44389981
2.0028343 -0.0029586018 0.4423202
2.0027866 -0.01254892 0.44228345
2.0068197 -0.022191653 0.44314501
2.0107462 -0.031871147 0.44398797
2.0105636 -0.041495945 0.44393617
1.9997631 -0.050829682 0.44156486
1.9894803 -0.060077984 0.4393118
1.9891665 -0.069597051 0.43924582
1.988785 -0.079112038 0.43916973
1.9792678 -0.08820124 0.4370985
1.9977721 -0.098636732 0.44116649
2.0000792 -0.10834493 0.44169343
2.1423721 -0.14714321 0.47294798
2.1398423 -0.15723827 0.47243777
2.1369753 -0.16728672 0.47185883
2.1361628 -0.17748661 0.47173488
2.1280553 -0.18703097 0.47001773
2.1262603 -0.19709834 0.4696883
2.1253102 -0.20723811 0.46954903
2.1281514 -0.21776877 0.47024563
2.1285105 -0.22806343 0.47040331
2.1185851 -0.23720089 0.46831116
2.1170471 -0.24724247 0.46806255
2.1161642 -0.25735739 0.46796247
2.1163747 -0.26761144 0.4681071
2.1249864 -0.27899113 0.47010025
2.1284435 -0.28975305 0.47096786
2.1156435 -0.29824144 0.4682717
2.115267 -0.30844483 0.46830723
2.1138067 -0.31848916 0.46810961
2.1152508 -0.32898483 0.46855474
2.1126237 -0.33884573 0.4681102
2.1037011 -0.34764209 0.46628621
2.1008744 -0.35740808 0.46580645
2.0991926 -0.36735931 0.46558291
2.0981846 -0.37742752 0.46551228
2.0999553 -0.38801453 0.46605781
2.1006351 -0.39842221 0.46636826
2.0986874 -0.40833384 0.46610466
2.0904274 -0.41697136 0.46445462
2.0880053 -0.42674145 0.46409482
2.0860529 -0.43659961 0.46384287
2.0840163 -0.44643363 0.4635767
2.0819364 -0.45625153 0.46330518
2.0760665 -0.46520871 0.46220121
2.0714061 -0.47440049 0.46136779
2.0692031 -0.48413852 0.46108112
2.0679691 -0.494102 0.46101275
2.0698578 -0.50483358 0.46163946
2.0714345 -0.51552087 0.46220195
2.0652997 -0.52427244 0.46106195
2.0732617 -0.53664392 0.46304759
2.0727324 -0.54686064 0.46315768
2.0717437 -0.55696404 0.46317008
2.0709763 -0.56713492 0.46323594
2.0713961 -0.57764727 0.4635694
2.0693927 -0.58749032 0.46336922
2.0632253 -0.59612268 0.46224773
2.0700188 -0.60853469 0.46401045
2.0672355 -0.618159 0.46364886
2.0644114 -0.62776083 0.46328184
2.0580871 -0.63626659 0.4621388
2.0541325 -0.6454739 0.46152642
2.0551867 -0.65626401 0.46203393
2.0522044 -0.66577029 0.46164525
2.0491824 -0.67525244 0.4612512
2.0487065 -0.68557721 0.46142897
2.0509846 -0.69685513 0.46222627
2.047857 -0.70630664 0.46181929
2.044647 -0.71571732 0.46139702
2.0398424 -0.72454733 0.46062073
2.0478313 -0.73796999 0.46271378
2.046386 -0.74803871 0.46269763
2.0407331 -0.75655007 0.46174082
2.0294876 -0.7629168 0.4595305
2.0260739 -0.77217942 0.45908025
2.0283279 -0.78362226 0.45990708
2.0423546 -0.79972935 0.4633874
2.0395644 -0.80931824 0.46308938
2.0359674 -0.81857508 0.46261224
2.0322382 -0.82776272 0.46210793
2.0335548 -0.839019 0.46274465
2.0237148 -0.84564185 0.460866
2.022454 -0.85581976 0.46092641
2.0306814 -0.87007928 0.46313599
2.0287826 -0.88004953 0.46305993
2.0229933 -0.88831198 0.46210539
2.0164003 -0.89617872 0.46097004
2.0124798 -0.90520221 0.4604421
2.0238023 -0.9211548 0.4633773
2.0286961 -0.93428808 0.46485907
2.017472 -0.9399789 0.46268037
2.0133915 -0.94894403 0.46212676
2.0081043 -0.9573136 0.46129999
2.0136681 -0.9708879 0.46294835
2.0058639 -0.97802204 0.46155176
2.001653 -0.98686945 0.46097589
1.9974128 -0.99568111 0.4603948
2.0088439 -1.0123764 0.46340007
2.004513 -1.0211846 0.46280411
2.0190177 -1.039678 0.46652561
2.0013084 -1.0415766 0.46286753
1.9954623 -1.0495501 0.46192861
1.9924295 -1.0589809 0.46163648
2.0004101 -1.0743223 0.4638786
2.0068269 -1.0889289 0.46576691
2.0068066 -1.1001015 0.46617773
2.1883187 1.1617247 0.50237095
2.1981652 1.1546376 0.50410569
2.203073 1.144919 0.50471622
2.2079492 1.1351594 0.50532079
2.2020733 1.1199404 0.50348687
2.2183845 1.1159066 0.50668812
2.2116189 1.1003131 0.50465989
2.2005923 1.0827395 0.50167418
2.1972156 1.0690135 0.50042576
2.1933675 1.0551275 0.49907604
2.197922 1.0452818 0.49962679
2.1944559 1.0316684 0.49837181
2.1843302 1.0150462 0.49562255
2.1716123 0.99737877 0.49229813
2.1711376 0.98539525 0.49173406
2.1747522 0.97526532 0.49209213
2.1751008 0.96368605 0.49171972
2.176337 0.9525153 0.49154988
2.1737216 0.93970442 0.49052098
2.1730974 0.92779189 0.48994237
2.1688709 0.91440409 0.48856279
2.1582863 0.8984592 0.48576894
2.1592178 0.88735086 0.48555258
2.1613276 0.87673217 0.48560232
2.1495986 0.86061656 0.482573
2.1534007 0.85074008 0.48300835
2.1488407 0.83761281 0.48158705
2.1550169 0.82865518 0.48255649
2.1586351 0.81869388 0.48295993
2.1575615 0.80697733 0.48232555
2.1412091 0.78970462 0.47830993
2.1447237 0.77979219 0.47870323
2.145952 0.76905364 0.47859365
2.1493821 0.75909656 0.47897452
2.1489573 0.74779606 0.47850692
2.1441348 0.7350269 0.47707298
2.1390963 0.72225761 0.47559729
2.1423304 0.71228951 0.47595081
2.1434767 0.70163214 0.47584763
2.1389074 0.68915868 0.47449079
2.1271117 0.67448139 0.47155052
2.1293116 0.66427332 0.47169384
2.1293764 0.65341395 0.47137201
2.1252217 0.6413123 0.47012854
2.1206079 0.62913781 0.4687902
2.1183541 0.61771154 0.46797475
2.1152332 0.60608143 0.46697453
2.1091874 0.59368628 0.46533963
2.1028171 0.58128202 0.46363997
2.105288 0.57133627 0.46387872
2.1078713 0.56141353 0.46414575
2.1104112 0.55147141 0.46440712
2.1071751 0.54005623 0.46341246
2.1051333 0.52898771 0.46268356
2.1120224 0.52013308 0.46390533
2.1066263 0.50829381 0.46245509
2.1054134 0.4975026 0.4619211
2.1076698 0.4875333 0.46214646
2.1009026 0.47553775 0.46041459
2.103061 0.46557832 0.46062779
2.0989172 0.45426473 0.45947701
2.0956442 0.44318905 0.45852074
2.0909901 0.4318783 0.45727035
2.085573 0.4204759 0.45586032
2.0839279 0.40987337 0.45527333
2.0720072 0.39735535 0.45246622
2.0738118 0.38749862 0.45263705
2.075572 0.37762922 0.45280248
2.0805078 0.36830983 0.45365891
2.0813341 0.35825717 0.45363095
2.0753915 0.34709257 0.45214513
2.062535 0.33489168 0.44917217
2.0501788 0.32290506 0.44631433
2.0516434 0.31312627 0.44644547
2.0520914 0.30319616 0.44636169
2.0539386 0.29346877 0.44658419
2.0577133 0.28399518 0.44722655
2.0589991 0.27416918 0.44733679
2.0559165 0.26378977 0.44651088
2.0522733 0.25338146 0.44556957
2.0479865 0.24294233 0.44449502
2.0516047 0.23343472 0.44512638
2.047127 0.22303665 0.44402099
2.0489087 0.21332733 0.44426665
2.024102 0.20102759 0.43880236
2.0250039 0.19134559 0.43886974
2.038168 0.18273418 0.44157559
2.038985 0.17298239 0.44163331
2.0319774 0.16261993 0.44001582
2.0440395 0.15372375 0.44249687
2.0447216 0.14394076 0.44253951
2.0400662 0.13381787 0.44144183
2.0231762 0.12302677 0.4377251
2.0214984 0.11322181 0.4372769
2.0231216 0.10359934 0.4375414
2.01859 0.093692601 0.43649104
2.0124037 0.083767474 0.43509123
2.0179183 0.074311554 0.43620402
2.0081871 0.064348921 0.43405452
2.0066173 0.054687705 0.43365887
1.9998342 0.044937398 0.43215132
2.0000095 0.035362847 0.43213916
2.0041974 0.025832025 0.43299112
2.0102406 0.016273987 0.43424487
2.0043249 0.0066434992 0.43294248
2.0028789 -0.0029451018 0.43260205
2.002831 -0.012530893 0.43256566
2.0246196 -0.022399636 0.43720889
2.0243464 -0.032084685 0.43713355
2.0185003 -0.041642029 0.43587002
2.0118906 -0.051123518 0.43444788
2.0015008 -0.060421761 0.43222132
2.0113006 -0.070366189 0.43432125
1.9942843 -0.079289764 0.43068564
1.9938807 -0.088823676 0.43061087
1.9997784 -0.098678574 0.43188968
2.0020876 -0.10839169 0.43240508
2.1291001 -0.1461248 0.45969477
2.1419897 -0.1573092 0.46249747
2.1416931 -0.16756834 0.46248156
2.1408787 -0.17778568 0.46235967
2.131151 -0.18720311 0.46033314
2.12924 -0.19726953 0.45998597
2.1282885 -0.20741849 0.45984918
2.1318028 -0.21802823 0.46067438
2.1307554 -0.22818266 0.46052694
2.1265688 -0.23797767 0.45971122
2.1191697 -0.24735968 0.45821124
2.1182857 -0.25747979 0.45811293
2.1170573 -0.26755515 0.4579455
2.1146297 -0.27746758 0.45752546
2.1133099 -0.28751734 0.45734781
2.1177633 -0.29838508 0.4584142
2.1173859 -0.30859381 0.45844865
2.1148865 -0.31848562 0.45803195
2.1071632 -0.32754335 0.45649746
2.1042318 -0.33731124 0.45599666
2.1058071 -0.34781164 0.45646906
2.1061425 -0.35812539 0.45667973
2.1044559 -0.36809686 0.45646024
2.1035349 -0.37820178 0.45641005
2.1045604 -0.38867128 0.45678326
2.102736 -0.39861858 0.45654777
2.0972102 -0.40783545 0.45551923
2.0953004 -0.41773629 0.45527375
2.093858 -0.42772725 0.45513329
2.0897501 -0.43715593 0.45442241
2.0860984 -0.44665584 0.45381385
2.0840077 -0.45647725 0.45354599
2.0741496 -0.46454239 0.45160529
2.0719881 -0.47429591 0.45132986
2.0697839 -0.4840323 0.45104915
2.0775447 -0.49615344 0.45292681
2.0791817 -0.50686604 0.45348597
2.0754604 -0.5162707 0.4528904
2.06883 -0.52491224 0.45166862
2.0706413 -0.53569734 0.45227826
2.0747974 -0.54713756 0.45340085
2.0738068 -0.55724657 0.45341277
2.0712404 -0.5669291 0.45308697
2.0741074 -0.57812321 0.45394415
2.0667646 -0.58645475 0.45258918
2.0640736 -0.59607816 0.45224744
2.0625432 -0.60603452 0.45216161
2.0707436 -0.61891186 0.4541961
2.072021 -0.62977833 0.45473018
2.0601301 -0.63659352 0.45240122
2.0561707 -0.64580595 0.45180157
2.0591824 -0.65722907 0.45272475
2.0542386 -0.66611391 0.45191732
2.051213 -0.67560142 0.45153135
2.0471513 -0.68472993 0.45092228
2.0530145 -0.69721639 0.45248517
2.0570829 -0.70916224 0.4536612
2.0563824 -0.71949703 0.45379868
2.0531371 -0.72893906 0.45338264
2.0418291 -0.73545718 0.45120296
2.046103 -0.74758595 0.45244035
2.0427458 -0.75694543 0.45200846
2.0354359 -0.76480299 0.45071149
2.0320117 -0.77408916 0.45026982
2.0415971 -0.7883957 0.45269126
2.0451357 -0.80045241 0.45378891
2.041569 -0.80974406 0.45332697
2.0352902 -0.81792867 0.45226988
2.0316014 -0.82712609 0.45178556
2.0279901 -0.83633924 0.45132074
2.0239358 -0.84535158 0.45076036
2.0235608 -0.85590267 0.45101529
2.0283768 -0.86869955 0.45242172
2.0288348 -0.87967807 0.4528687
2.018903 -0.88611746 0.45101777
2.0123963 -0.8939985 0.44992608
2.0105681 -0.90394014 0.44987348
2.0216913 -0.9197861 0.45269912
2.0176792 -0.92879868 0.45216873
2.0127552 -0.93736684 0.45143744
2.008682 -0.94630778 0.45089704
2.0057762 -0.95578569 0.45061818
2.016125 -0.97165185 0.45329657
2.0223134 -0.98562467 0.45505351
2.003588 -0.98739868 0.45125234
1.9993411 -0.99621564 0.45068318
1.994408 -1.0046645 0.44996184
1.9992994 -1.0180922 0.45144108
2.002002 -1.0304707 0.45243472
1.9976085 -1.03921 0.451841
1.997377 -1.0501155 0.4521825
1.9943391 -1.059552 0.45189619
2.0054948 -1.0766051 0.4548032
2.0103137 -1.0903684 0.45629123
2.2169878 1.1888113 0.49806556
2.2220242 1.1790535 0.49868152
2.1984494 1.154339 0.49293289
2.2002337 1.1430084 0.49283433
2.2082398 1.134865 0.49411964
2.2101865 1.1236012 0.49406075
2.2149954 1.113775 0.49463856
2.2062309 1.0972168 0.49221271
2.202697 1.0833403 0.49095112
2.2230773 1.0810866 0.49497795
2.2181287 1.0665377 0.49340886
2.1965635 1.0322393 0.48771694
2.1889241 1.0167583 0.48557496
2.1838915 1.0025767 0.48401305
2.1782954 0.98822254 0.48233283
2.1798334 0.97713238 0.48222446
2.1803386 0.96559823 0.48189268
2.1814141 0.95433301 0.48168924
2.1758223 0.94022179 0.48002982
2.175199 0.92830223 0.47946295
2.1736581 0.91603148 0.47869962
2.1692951 0.902637 0.47732458
2.1643353 0.88907111 0.47582498
2.1639581 0.87742788 0.4753297
2.1516848 0.86108816 0.47224846
2.1554921 0.85120565 0.47267371
2.16186 0.84229803 0.47365797
2.157356 0.8292008 0.47228298
2.1607354 0.81914073 0.47262403
2.1538947 0.80527782 0.47075227
2.143295 0.79013497 0.46807259
2.1492448 0.78109318 0.46898279
2.1502924 0.77027082 0.46883482
2.151479 0.75950903 0.46872061
2.1510546 0.74820197 0.46826228
2.1441183 0.73470861 0.46640322
2.1411858 0.72264904 0.46541375
2.1448226 0.71280664 0.46584472
2.1476209 0.70267636 0.46609816
2.1409996 0.68953127 0.46432877
2.1370933 0.67732793 0.46314928
2.1313958 0.66463178 0.46159056
2.1253614 0.6519118 0.45996556
2.1273034 0.64165777 0.46005747
2.1218908 0.62924284 0.45857683
2.1204302 0.61804378 0.45794854
2.1227283 0.60794526 0.4581295
2.1152625 0.59512162 0.45622575
2.1064401 0.58202094 0.45403844
2.1042886 0.57081932 0.45328295
2.1068711 0.5609054 0.45354313
2.1069074 0.55032498 0.45326376
2.1047575 0.53920746 0.45252267
2.1072009 0.52927059 0.45276532
2.1140971 0.52041107 0.45396
2.1152079 0.51011926 0.45392621
2.1109104 0.49856919 0.45274618
2.1103811 0.4879398 0.45237279
2.1078157 0.47687605 0.45157149
2.1026332 0.46528077 0.45021963
2.1041567 0.45518601 0.45029667
2.1030455 0.44454083 0.44981909
2.0991378 0.43335083 0.44875348
2.084069 0.41999224 0.44532853
2.0709205 0.40716851 0.44231811
2.0724058 0.39725664 0.44241247
2.0721471 0.38702202 0.4421421
2.0717673 0.37678123 0.44185075
2.0727987 0.3668032 0.44186234
2.0615683 0.35474709 0.43928787
2.0629983 0.34489885 0.43939358
2.0645645 0.33507016 0.43953243
2.0591269 0.32415178 0.43819779
2.052913 0.3131808 0.43670502
2.0509903 0.30290458 0.4361226
2.0554867 0.29355919 0.43689781
2.0650678 0.28487 0.438748
2.0630546 0.27458143 0.43815985
2.0531023 0.26332194 0.43590564
2.0488596 0.25285947 0.43485892
2.0469959 0.24272348 0.43431789
2.0510993 0.23327921 0.43503654
2.0542712 0.22370429 0.43556339
2.0600355 0.21437076 0.43663931
2.0509 0.20354369 0.43458909
2.0271707 0.19146599 0.42947984
2.0401735 0.18283418 0.43209019
2.0288415 0.17207374 0.42959574
2.0339768 0.16270976 0.43056285
2.0347011 0.15298037 0.43060869
2.0365329 0.14332527 0.43089134
2.0448961 0.1340723 0.4325482
2.036845 0.12378155 0.4307676
2.0278866 0.11352372 0.4288024
2.0283816 0.10381995 0.42882362
2.0286543 0.094105646 0.42880288
2.0132892 0.083774403 0.42551091
2.0136454 0.07413961 0.42551759
2.0071814 0.064300075 0.42410046
2.0085909 0.05472336 0.42433709
2.003031 0.044993285 0.42311916
2.0089877 0.035498567 0.424317
2.0169537 0.025970625 0.42593986
2.012217 0.016290583 0.42490837
2.0062957 0.0066552865 0.42363366
2.0031826 -0.0029323548 0.42295158
2.0078092 -0.012553312 0.42389369
2.0159905 -0.022264352 0.42558423
2.015852 -0.031905945 0.42553842
2.0071425 -0.041353714 0.42370394
2.013253 -0.05112353 0.42497492
2.0135946 -0.060767841 0.42504352
2.0132768 -0.070392534 0.42497879
1.9962438 -0.079320595 0.42142138
1.9874686 -0.088471055 0.41959617
1.9870219 -0.09796606 0.4195182
1.9928869 -0.10781243 0.42076549
2.0099831 -0.11839955 0.42436782
2.1184015 -0.14528957 0.44712338
2.1304748 -0.1563561 0.44969124
2.1406527 -0.1673914 0.45186779
2.1425092 -0.17782488 0.45230743
2.1332424 -0.1872869 0.45042294
2.1323361 -0.19745319 0.45029366
2.1304085 -0.20751554 0.44995522
2.1331394 -0.21804912 0.45059735
2.1328456 -0.22828698 0.45061085
2.1306362 -0.23831166 0.45022768
2.1275144 -0.24821441 0.44965792
2.120363 -0.25759897 0.448248
2.1191332 -0.26767939 0.44808379
2.1167028 -0.27759686 0.44767249
2.1274965 -0.28931725 0.45003974
2.1250832 -0.29927129 0.44964159
2.1298614 -0.31026912 0.45075732
2.120955 -0.31924307 0.44900548
2.1256337 -0.33027074 0.45011005
2.1198618 -0.33966446 0.44902471
2.1122348 -0.34870374 0.44755358
2.1090174 -0.35843521 0.44701296
2.1073284 -0.36841565 0.44679785
2.1068566 -0.37861136 0.44684318
2.1050766 -0.38857067 0.44661775
2.1069641 -0.39922434 0.4471685
2.0992618 -0.40803176 0.44570521
2.1007185 -0.41861361 0.44617417
2.0972822 -0.42821693 0.44561705
2.0939045 -0.43781191 0.44507617
2.088129 -0.44687083 0.44403371
2.0766301 -0.4546262 0.44178739
2.0699854 -0.46337509 0.44056791
2.0723486 -0.47414479 0.44125327
2.0877769 -0.48802218 0.44470289
2.0890136 -0.49866155 0.44516104
2.0952017 -0.51054078 0.44667053
2.0821874 -0.51769918 0.44412443
2.0750935 -0.52625257 0.4428328
2.0761468 -0.53686732 0.44326866
2.0783551 -0.54781437 0.44395369
2.0816395 -0.55909002 0.44487152
2.0811403 -0.56937563 0.44499213
2.0761268 -0.57841033 0.44415915
2.0641837 -0.58543897 0.44185862
2.0608373 -0.59485579 0.44138497
2.0606401 -0.60518479 0.44158381
2.0678241 -0.61774242 0.44335592
2.0675874 -0.62812841 0.44355536
2.0621309 -0.63691258 0.44264793
2.058167 -0.64613032 0.44206092
2.0586722 -0.65675682 0.44242933
2.0524426 -0.66521788 0.44136593
2.0618358 -0.67879319 0.44363779
2.0543928 -0.68683881 0.44232208
2.0550027 -0.69756919 0.44272837
2.0553656 -0.70824039 0.44308597
2.0521638 -0.71768552 0.44268507
2.0470767 -0.72644722 0.44188371
2.0411332 -0.73486805 0.44090122
2.0401218 -0.74505407 0.44097784
2.0411661 -0.75601351 0.44149876
2.0413184 -0.76666909 0.44183218
2.0442324 -0.77840137 0.44276243
2.0510583 -0.79169875 0.44453788
2.0471041 -0.80086309 0.44400084
2.0435324 -0.81016004 0.44354853
2.0399253 -0.81942761 0.44309106
2.0320125 -0.82692432 0.44170812
2.0260496 -0.83516544 0.44074664
2.019717 -0.84321207 0.43970695
2.0238965 -0.85566628 0.44093922
2.0234535 -0.86620569 0.44117716
2.0264881 -0.87827289 0.44217053
2.0208323 -0.88657707 0.44128683
2.0212545 -0.8975476 0.4417215
2.012486 -0.90441006 0.44016668
2.0236177 -0.92026478 0.4429307
2.0213921 -0.93010807 0.44280073
2.0173392 -0.93910009 0.44227603
2.0096376 -0.94635242 0.44095933
2.0222085 -0.96321356 0.44405663
2.0247805 -0.97541255 0.44498283
2.0234149 -0.98574388 0.44505438
2.0191629 -0.99466187 0.44449842
2.0063457 -0.99928826 0.44207293
2.0001259 -1.0071251 0.44108799
2.001184 -1.0186269 0.4416962
2.0049846 -1.0315777 0.44290823
1.999487 -1.0397568 0.44208655
1.996153 -1.0490382 0.44174021
1.9977587 -1.0609335 0.44247991
2.0073733 -1.0771728 0.44498321
2.0106237 -1.0900915 0.44609302
2.2062502 1.1579713 0.48340419
2.2054102 1.1452458 0.48273501
2.2102966 1.1354827 0.48331183
2.2122476 1.1242123 0.48325357
2.2170632 1.1143806 0.48381799
2.2215955 1.1043844 0.48432231
2.2185307 1.0906565 0.48318648
2.2232299 1.0807412 0.48373133
2.2202082 1.0671159 0.48261252
2.2016673 1.0462251 0.47815463
2.1879392 1.0278107 0.47474393
2.18788 1.0158776 0.47428176
2.1847801 1.0025868 0.47317001
2.186389 0.99147779 0.47307354
2.1844058 0.97878015 0.47220987
2.1827962 0.966295 0.4714306
2.1866226 0.95621473 0.4718191
2.1784589 0.94097716 0.46964574
2.1775339 0.92891932 0.4690257
2.1757157 0.91652405 0.46821913
2.1770535 0.90547729 0.46809012
2.1750405 0.89307618 0.46725032
2.1672797 0.87840903 0.46519133
2.1572671 0.86295515 0.46266004
2.159292 0.85234815 0.46269462
2.1639216 0.84275132 0.46328551
2.1594076 0.82964402 0.46193853
2.1580815 0.8178069 0.4612729
2.1516812 0.80412596 0.45953679
2.1443396 0.79019153 0.4576076
2.151293 0.7815091 0.45870805
2.1547799 0.7715463 0.45907757
2.1525385 0.75956523 0.45824045
2.1515083 0.74804777 0.45766371
2.1461658 0.73509848 0.45618224
2.1436298 0.72316545 0.45529774
2.1532793 0.71529472 0.45698309
2.1555459 0.70495248 0.45711666
2.1453094 0.69061774 0.45462587
2.1417327 0.67850059 0.45354104
2.1372383 0.66615742 0.45226905
2.1372647 0.65525436 0.45195052
2.1338849 0.64335364 0.45092243
2.1291809 0.6311183 0.44962239
2.1277761 0.61990273 0.44901824
2.1257968 0.60855812 0.44829863
2.1232324 0.59708947 0.44746163
2.1259327 0.58710557 0.44772905
2.1093757 0.57194257 0.4439809
2.1063907 0.56054014 0.44307235
2.1042886 0.54941368 0.44235292
2.1112692 0.54062814 0.44353032
2.1137204 0.53066474 0.44376737
2.1189139 0.52136177 0.44457868
2.1078401 0.50814396 0.44201067
2.110147 0.49817774 0.44223034
2.1122561 0.48815966 0.44241276
2.0883982 0.47232968 0.43720934
2.0785148 0.45980737 0.43491486
2.1030004 0.45474395 0.43975297
2.1050673 0.44477266 0.43994433
2.1021297 0.43377528 0.43910307
2.0623851 0.39519128 0.43021387
2.0741403 0.38722375 0.43243316
2.0730796 0.37685558 0.43200696
2.0614336 0.36466369 0.42939958
2.0635517 0.35493207 0.42963988
2.0651648 0.34510872 0.42978004
2.0667329 0.33527413 0.4299151
2.0611081 0.32432106 0.42857182
2.0548882 0.31334451 0.42711139
2.0529637 0.30306301 0.42654115
2.0657179 0.29487184 0.42899773
2.0744545 0.28602257 0.43062994
2.0748243 0.27600476 0.4305442
2.0568199 0.26367971 0.4266845
2.0553479 0.25353947 0.42623055
2.0489657 0.24285154 0.42477235
2.0530729 0.23340257 0.42547446
2.061007 0.22433025 0.4269664
2.0641398 0.21470076 0.42747626
2.0582192 0.20417069 0.4261322
2.0488288 0.19338508 0.42408162
2.049696 0.18359295 0.42414063
2.0516553 0.17388937 0.42442816
2.0524316 0.16408128 0.42447752
2.0434492 0.15355949 0.42253134
2.0441308 0.14378858 0.42257085
2.0468631 0.13414651 0.42303497
2.0474544 0.12435783 0.42306498
2.0393474 0.11409986 0.42131832
2.0367727 0.10419525 0.42070964
2.0330622 0.094269022 0.41987318
2.0310102 0.084447503 0.41938102
2.0218458 0.074401945 0.41743824
2.0221586 0.06473089 0.41743958
2.0224259 0.055058468 0.41743615
2.0204482 0.045340091 0.41697812
2.0206251 0.03567639 0.4169654
2.0251582 0.026060164 0.41784805
2.025245 0.016375015 0.41782594
2.0101249 0.0066698189 0.41469917
2.007478 -0.0029331488 0.41412756
2.0074296 -0.012531681 0.41409177
2.0074558 -0.022130545 0.41407576
2.0092542 -0.031761233 0.41442657
2.0055292 -0.041285258 0.41365281
2.0053017 -0.050869912 0.41359851
2.014914 -0.06076872 0.41556004
2.0145955 -0.070395127 0.41549629
2.0044923 -0.079613462 0.41343698
1.9970549 -0.088861004 0.41192704
1.9936589 -0.098246515 0.41124761
1.9931663 -0.10776456 0.41116613
2.0024259 -0.11787251 0.41308275
2.1283097 -0.15610662 0.43892252
2.1356521 -0.16690011 0.44046852
2.1436145 -0.17782119 0.44214636
2.1422451 -0.1879898 0.4419204
2.1371434 -0.1977995 0.44093567
2.1334279 -0.20770334 0.44023898
2.1314516 -0.21775816 0.43990272
2.130404 -0.2279014 0.43976116
2.1306961 -0.23819324 0.43989849
2.1315367 -0.24855988 0.44015288
2.1281805 -0.2584261 0.43955249
2.126946 -0.26853895 0.43939114
2.1180944 -0.27763823 0.43767375
2.1295357 -0.2894488 0.44011873
2.1271195 -0.29940778 0.43972909
2.1256971 -0.30949864 0.43954754
2.1236801 -0.31949487 0.43924847
2.1221662 -0.32956019 0.43905708
