# .PCD v0.7 - Point Cloud Data file format
VERSION 0.7
FIELDS x y z
SIZE 4 4 4
TYPE F F F
COUNT 1 1 1
WIDTH 1462
HEIGHT 1
VIEWPOINT 0 0 0 1 0 0 0
POINTS 1462
DATA ascii
2.3384192 1.3522743 0.31440014
2.3204923 1.3287607 0.31167087
2.3201592 1.3154023 0.3112843
2.2791083 1.2793541 0.30550045
2.284539 1.2694819 0.30588725
2.2899404 1.2595642 0.30627048
2.270947 1.2364135 0.30342987
2.2275138 1.2004148 0.29736996
2.1505029 1.147132 0.28689608
2.1399481 1.129596 0.28520092
2.1424179 1.1189659 0.28522465
2.1361389 1.103846 0.28409955
2.1040905 1.0757349 0.27959394
2.1614168 1.0336257 0.28536215
2.1678703 1.0013559 0.28534994
2.1868975 0.9982602 0.2875427
2.109437 -0.18362162 0.26318195
2.0581172 -1.1321455 0.26962179
2.300128 1.3299724 0.29764116
2.3212249 1.3288972 0.30000889
2.3214228 1.3158357 0.29970366
2.2949722 1.2879342 0.2960009
2.2857869 1.2699 0.29450729
2.2911925 1.2599789 0.29487526
2.2057142 1.2008461 0.28368849
2.1177306 1.1413589 0.27220902
2.1226187 1.1321052 0.27253783
2.1274779 1.1228106 0.27286333
2.1459839 1.1205723 0.27491698
2.123467 1.0970993 0.27177975
1.9901564 0.22514153 0.24039713
2.0847149 -0.18136173 0.25022528
2.3569756 1.362385 0.29297253
2.3027818 1.3181306 0.28599271
2.2906713 1.2982385 0.28419119
2.3139045 1.2982342 0.28672504
2.314816 1.2856723 0.28652254
2.320292 1.2756275 0.28687951
2.1206112 1.1545538 0.26218382
2.1188469 1.1417207 0.26168564
2.1409447 1.1296378 0.26381508
2.1447306 1.1196882 0.26399496
1.1302158 0.12983422 0.13251407
1.9922606 0.21576983 0.23107913
2.08305 -0.18114844 0.24013388
2.0705709 -1.1384513 0.25042057
2.2930582 1.3253847 0.27350131
2.3039377 1.3185334 0.27447775
2.2918224 1.2986351 0.27274847
2.2973311 1.2887365 0.27309456
2.1335297 1.1613145 0.25301886
2.1092768 1.008208 0.24703944
2.1172211 1.0004537 0.24770676
2.132442 0.9960162 0.24921352
1.0349334 0.12423989 0.11671745
1.1205941 0.12874453 0.12607008
1.1432468 0.12575677 0.12850793
1.9942783 0.20638445 0.22174661
2.1591401 -0.19812196 0.23856536
1.9955024 -1.0969018 0.23143733
2.3436899 1.3542373 0.2676073
2.3050454 1.3189204 0.26295286
2.2586842 1.2797265 0.25744101
2.1300545 1.1592169 0.24189349
2.1332445 1.1489865 0.24198775
2.084379 1.018967 0.234273
2.0734129 1.0023012 0.23281723
2.0777938 0.99306726 0.23306386
2.0913594 0.98812252 0.23432647
2.1132684 0.98692757 0.23650904
2.117604 0.9774673 0.23674992
2.1953197 0.62418091 0.23814517
1.0360081 0.11935541 0.11185349
1.1217321 0.12345575 0.12080598
1.9866706 0.20557973 0.21147452
2.0824785 -0.19090179 0.22032861
2.0850782 -0.60746437 0.22339675
2.0687315 -0.61306018 0.22178367
2.0392392 -0.61453533 0.21878061
2.0324755 -0.62272072 0.21818121
2.027777 -0.63150203 0.21780163
2.0248616 -0.64082098 0.2176124
2.0524797 -0.65997821 0.22066095
2.0531468 -0.67060459 0.22085679
2.0853262 -0.69174063 0.22439833
2.0827322 -0.7014789 0.22425397
2.0607781 -1.132557 0.2285631
2.3694091 1.3553048 0.2582339
2.1617103 1.1761274 0.23457059
2.1360054 1.1502578 0.23156567
2.0880134 1.0434644 0.22474481
2.0824385 1.029253 0.2239188
2.0612435 1.0075473 0.22144119
2.0414739 0.98678458 0.21912071
2.0457885 0.97769397 0.21935174
2.0669034 0.97646499 0.22135732
2.0920227 0.9768911 0.2237823
2.1128139 0.97508895 0.22574756
2.1312761 0.97203463 0.22746488
2.1730378 0.61778182 0.22527105
2.0866017 0.21565644 0.2120506
2.0602226 -0.58973062 0.21073493
1.6779699 -0.48829871 0.17229523
1.5561817 -0.46050695 0.16009565
1.5445886 -0.46482658 0.15900795
1.5342586 -0.46943223 0.15804809
1.5320836 -0.47649559 0.15791257
1.5343599 -0.48496437 0.15822832
1.5439887 -0.49584132 0.15928952
1.5571829 -0.50799805 0.16071416
1.5964744 -0.52898306 0.16478485
1.6961058 -0.57075661 0.17497629
1.8573512 -0.63467705 0.19142863
1.9340976 -0.67086506 0.19932912
2.0375185 -0.71727002 0.20994879
2.0354002 -0.72696298 0.20986217
2.0585995 -0.74585032 0.21235056
2.0687761 -0.76020068 0.21351917
2.0630805 -1.1335845 0.21846858
2.3859239 1.3780379 0.24824211
2.1319814 1.159855 0.22067212
2.0980337 1.0713962 0.21580213
2.0972953 1.0594416 0.21549821
2.0788479 1.0387337 0.21340442
2.0517313 1.0140008 0.21044007
2.0823567 0.97223681 0.21243615
2.0972559 0.96778649 0.21371742
2.1070683 0.96089882 0.21448694
2.1365211 0.96272135 0.21722455
2.1810117 0.63089311 0.21572654
2.1656837 0.61559623 0.21407269
2.1453571 -0.20687212 0.2065766
2.0638545 -0.58031797 0.20106782
1.6413032 -0.46924239 0.16060668
1.5333118 -0.44590119 0.15031505
1.5190758 -0.52637935 0.14984299
1.5354841 -0.53995222 0.15151864
1.5839834 -0.56519634 0.15630195
1.6670907 -0.60351962 0.16444238
1.9240911 -0.70674694 0.18943749
2.0069768 -0.74762475 0.19759034
2.0433502 -0.77177119 0.20124424
2.0410945 -1.1212704 0.20594293
2.1138382 1.161734 0.208432
2.1107402 1.1481867 0.20790102
2.1156602 1.1389929 0.20814928
2.094243 1.0808885 0.20517936
2.0935483 1.0689459 0.20489238
2.0804436 1.0508127 0.20341189
2.0541379 1.0263005 0.20066568
2.0526025 1.0142611 0.20030656
2.0875218 0.96316427 0.20240305
2.0989637 0.95706761 0.20329002
2.124954 0.95738405 0.20556277
2.1819577 0.63105404 0.20529379
2.1791141 0.61927062 0.20487666
2.1574385 0.2124383 0.19861332
2.0982363 -0.2021926 0.19217271
2.1452754 -0.21703534 0.19643152
2.1048274 -0.58124882 0.19478726
1.6441628 -0.46173418 0.15289214
1.5360173 -0.43889344 0.14310354
1.5173118 -0.53342032 0.14239079
1.5211201 -0.54257149 0.14282592
1.5244546 -0.55160552 0.14321911
1.5219347 -0.55853426 0.14307524
1.5281818 -0.56872588 0.14373943
1.6335785 -0.61652178 0.15353991
1.9705878 -0.75427437 0.18470585
2.0612254 -0.79974508 0.19318672
2.0656319 -0.81220418 0.19372033
2.0625196 -0.82173049 0.19356149
2.0625868 -0.8325333 0.19369774
2.0440938 -0.95506334 0.19365023
2.040803 -0.96449995 0.1934908
2.0379705 -0.98515809 0.19352505
2.040324 -0.9973473 0.19389646
2.0328746 -1.0047375 0.19335181
2.0519094 -1.1155925 0.19657269
2.0471349 -1.1243738 0.19628789
2.1726651 1.2181761 0.2036833
2.1778541 1.2087772 0.20393366
2.1468477 1.1795847 0.20084928
2.1115825 1.1484684 0.19738063
2.1165056 1.1392722 0.19761513
2.0840209 1.1102496 0.19441478
2.1144726 1.1145812 0.1969953
2.0933375 1.0918707 0.19484432
2.0950837 1.0811535 0.19479311
2.0554025 1.0494347 0.19095533
2.0444858 1.0326115 0.18975379
2.0426359 1.0204345 0.18938285
2.0847733 0.95049191 0.19162822
2.1040399 0.94787616 0.19317602
2.168577 0.96508926 0.19880871
2.1703157 0.60578966 0.19346148
2.1433799 -0.21677791 0.18611787
2.1708879 -0.22996362 0.18848659
1.9745641 -0.54500961 0.17343612
1.5456965 -0.43384644 0.13648275
1.4929117 -0.52469981 0.13290118
1.503493 -0.53614837 0.13390084
1.5152541 -0.54814899 0.13500558
1.5092078 -0.55373156 0.13456053
1.5113964 -0.56234127 0.13483417
1.5088339 -0.56919211 0.13469455
1.5235913 -0.58267552 0.13606827
1.6284176 -0.63133937 0.14531553
1.7135853 -0.6733638 0.15285693
1.7105384 -0.68108523 0.1526905
1.7074614 -0.6887818 0.15252231
1.8074667 -0.73868084 0.16138706
1.9271258 -0.79779714 0.17198834
1.9944741 -0.83621818 0.17801563
2.0105927 -0.85358357 0.17955443
2.0121393 -0.86486822 0.17981622
2.0082741 -0.87383455 0.17960371
1.9923729 -0.87747502 0.178333
1.9846509 -0.88462168 0.17778176
1.973551 -0.89018464 0.17693318
1.712639 -0.78148174 0.15405399
1.7091752 -0.78905326 0.15386237
1.7869216 -0.83459222 0.16084401
1.8591413 -0.8783713 0.16734873
1.9496936 -0.93172026 0.17548609
1.9455982 -0.94027382 0.17525826
1.929414 -0.94289309 0.17396004
1.9252861 -0.95132571 0.17372973
2.0486646 -1.0235008 0.18481444
2.0415649 -1.1097594 0.18538474
2.0882163 -1.1467402 0.18971036
2.1734829 1.2184604 0.19281876
2.1786747 1.2090592 0.19305442
2.1476576 1.1798601 0.19013549
2.1173062 1.1395382 0.18707384
2.08481 1.1105087 0.18404528
2.0991387 1.1063913 0.18508571
2.075912 1.0826846 0.18287078
2.0486331 1.0571862 0.18031085
2.0344319 1.0386487 0.17888786
2.08356 0.94980145 0.1812216
2.0996392 0.94576663 0.18241166
2.1583333 0.96041834 0.18723789
2.183691 0.60939527 0.18412755
2.1442139 -0.21680309 0.17604847
2.1697729 -0.2297806 0.17812786
1.9753283 -0.54510337 0.16401966
1.5462952 -0.43392152 0.12910093
1.4588929 -0.52008349 0.12293267
1.4577805 -0.52718222 0.12291375
1.4643209 -0.53710115 0.12352576
1.4618685 -0.54374701 0.12339869
1.4445454 -0.54475766 0.12204674
1.4186622 -0.5423227 0.11998801
1.4161968 -0.54873657 0.1198601
1.4137058 -0.5551306 0.11973083
1.4185609 -0.56444561 0.12020924
1.405128 -0.56643456 0.11917693
1.4025692 -0.57275152 0.11904384
1.3705322 -0.56683391 0.11647053
1.351585 -0.56609321 0.11497913
1.3297708 -0.56395036 0.11324868
1.3272393 -0.56989354 0.11311654
1.3246306 -0.57579207 0.11297853
1.3220549 -0.58169335 0.1128438
1.2416784 -0.61983269 0.10703263
1.9945759 -1.0071473 0.17025071
2.0278893 -1.0350685 0.17318097
2.0233948 -1.0438582 0.1729413
2.0384574 -1.0965728 0.1747714
2.0235279 -1.0997547 0.17365614
1.9943122 -1.0949498 0.17133394
2.1477189 1.1918262 0.17955951
2.0855551 1.1107545 0.17366916
2.071943 1.0920027 0.17236429
2.0689285 1.0789211 0.17192848
2.039521 1.0523732 0.16934153
2.0034003 1.0227745 0.16621411
2.0796981 0.94792181 0.17061852
2.0887964 0.94078612 0.17117697
2.1456108 0.9546631 0.17557372
2.1749163 0.95595062 0.17775175
2.1890059 0.61077803 0.174041
2.1594131 0.5917722 0.17159958
2.1215687 -0.21442024 0.16419241
2.1777451 -0.23057599 0.16847609
2.1004031 -0.57964557 0.16414081
1.5679641 -0.4399437 0.12333506
1.2742486 -0.65693521 0.10367124
1.6784104 -0.8748045 0.13572001
2.0069878 -1.0572776 0.16183797
2.0024257 -1.0659206 0.16160651
1.9978362 -1.0745254 0.16137327
1.9942707 -1.0836622 0.16122164
2.0586395 1.0849016 0.16098508
2.0613313 1.0748507 0.16101329
2.0402086 1.0525937 0.15921807
2.0324104 1.0373528 0.15844697
2.0039206 0.95695174 0.15526229
2.0717304 0.9553811 0.15991285
2.0811155 0.94844109 0.16045779
2.0951462 0.94350392 0.16135365
2.1280291 0.9467718 0.16367249
2.171319 0.95425659 0.16677266
2.1897633 0.61090726 0.16357441
2.1618524 0.59235668 0.16140465
2.1337132 0.18968876 0.15596044
2.0971289 -0.2118566 0.15242711
2.1257563 -0.57597995 0.15582801
2.1044343 -0.58064854 0.15436031
1.7957495 -0.50409031 0.13220458
1.5170507 -0.43308175 0.11218987
1.2017776 -0.63266098 0.092099868
1.2627712 -0.67179102 0.096701011
1.2598717 -0.67722613 0.096561953
2.059288 1.0851159 0.15074427
2.0619814 1.0750631 0.15076935
2.0285165 1.0464804 0.14820534
2.0274293 1.0347073 0.14796406
1.9978341 0.95395339 0.1449022
2.0020211 0.94504964 0.1450457
2.0385478 0.95110822 0.14748305
2.0768461 0.95760995 0.15004152
2.0810702 0.94830757 0.15018405
2.0958149 0.94369036 0.15107079
2.1386428 0.95134711 0.15393969
2.172013 0.95444524 0.15613632
2.1987095 0.62434429 0.15378614
2.1597979 0.6025517 0.15099892
2.0118716 0.55158287 0.14074807
1.0216161 0.27771506 0.072845429
1.0228773 0.2729274 0.072878309
2.0876353 -0.21082982 0.14189214
2.2017314 -0.23303592 0.14949866
2.1290874 -0.5662058 0.14581132
2.1155448 -0.57309479 0.14496128
2.0000114 -0.55161875 0.13725984
1.5826399 -0.44391358 0.10926606
1.1062883 -0.60679555 0.079741038
1.9921352 1.0387759 0.13581905
2.010927 1.0373566 0.13691978
1.9980994 0.95397562 0.13502622
2.02879 0.95749146 0.1369092
2.1276009 0.95779717 0.14283234
2.1392794 0.95152396 0.14345138
2.1686554 0.9528752 0.14523154
2.1874402 0.62110502 0.14250103
2.0099151 0.56106508 0.13106675
1.0427604 0.28854829 0.069328703
2.1426673 0.18022682 0.13631542
2.1691735 -0.22948684 0.13709107
2.0618715 -0.53793645 0.13138303
1.6236601 -0.43115216 0.10410891
1.5871671 -0.42929623 0.10187329
1.5792769 -0.43501249 0.10142177
1.4873363 -0.41697088 0.095723316
1.9783975 1.0315614 0.12503207
1.9959947 0.96376437 0.12514219
2.1486378 0.95556223 0.13349105
2.1692545 0.95304132 0.13460407
2.2005007 0.63578272 0.13287152
2.1880522 0.62121576 0.1320297
1.3764806 0.38597557 0.084047884
1.0314591 0.28545377 0.06364508
2.1432674 0.18027042 0.12624139
2.1181476 -0.22395995 0.12393846
2.1835713 -0.24139813 0.12768531
2.0876019 -0.52394271 0.12292056
1.7109922 -0.43743584 0.10129248
1.4981607 -0.39014184 0.089077361
1.4450709 -0.38340297 0.08605282
1.1102451 -0.60880297 0.068896368
1.9280406 1.0053965 0.11230581
1.972891 1.0176803 0.11472166
1.9805861 0.96711409 0.11451388
1.9601967 0.94651788 0.11323906
2.1655359 0.9629389 0.12386402
2.1828802 0.95890003 0.12470178
2.1918957 0.62224239 0.12173182
1.3768362 0.38604006 0.077451363
1.0433229 0.28864774 0.05932615
1.0289551 0.27958852 0.058502745
1.0249176 0.10324538 0.057071555
2.1438205 0.18031237 0.11616328
2.0938683 -0.22130719 0.11267336
2.1841331 -0.2414103 0.11741346
1.7202014 -0.42273995 0.093541317
1.451565 -0.36350143 0.079397403
1.4197309 -0.36249861 0.077743389
1.4094828 -0.36684817 0.077228688
1.9667386 1.0253545 0.10469703
1.992702 0.97291154 0.10532022
2.183388 0.95904499 0.11400127
2.2073257 0.95768726 0.11509809
2.197391 0.62373996 0.11148251
1.9028871 0.53134787 0.096835345
1.0630723 0.29398352 0.055284929
1.0332673 0.28071573 0.053770807
2.1118772 -0.22319371 0.10366027
2.1846471 -0.24141958 0.10713781
2.1517215 -0.50815898 0.10598095
1.7225603 -0.41477171 0.085421592
1.412006 -0.34650135 0.070542865
2.0201101 1.0529158 0.097393602
1.9715886 1.0168639 0.095009781
1.9738377 0.96369958 0.094568819
2.1686199 0.95253587 0.10259572
2.1952984 0.952438 0.10371178
2.1885881 0.61024106 0.10046042
1.1838969 0.32674012 0.055564739
1.0358109 0.28137496 0.048920441
2.0462217 -0.021870716 0.09109883
2.0460782 -0.03155667 0.091072343
2.0458889 -0.041240741 0.091044873
2.0440128 -0.050878718 0.090945609
2.0437326 -0.060550358 0.090916187
2.1123278 -0.2231988 0.093724959
2.1578648 -0.23837416 0.095685139
2.1844304 -0.25177529 0.096829273
2.137331 -0.49418005 0.095089592
1.8618829 -0.43930292 0.083210185
1.413913 -0.33995244 0.063868061
2.0223694 1.0652623 0.087526672
1.967515 1.0256256 0.085125364
1.9711249 1.0165663 0.085175209
2.0449328 0.9981041 0.087745734
2.1690302 0.95265764 0.091962039
2.2055159 0.95678294 0.093360044
2.2541819 0.96573001 0.095255323
2.018852 0.55320531 0.083131507
1.1324481 0.307091 0.047791172
2.0700736 0.0072512785 0.082463577
2.0700667 -0.0025493396 0.082440056
1.9973868 -0.011778086 0.079619609
1.9190075 -0.020248774 0.076582186
1.6249093 -0.024247199 0.065246694
1.3654596 -0.026232382 0.055250511
1.3653026 -0.032702975 0.055232007
1.4313521 -0.041256126 0.057759803
1.629903 -0.055229139 0.065380774
1.7461669 -0.067712575 0.069836579
1.9823444 -0.086768702 0.078899324
2.1203287 -0.23412812 0.084074706
2.1790338 -0.25110096 0.086324535
2.1555083 -0.48777446 0.085601516
2.0982714 -0.48503733 0.083418146
1.5129323 -0.35644364 0.060920347
1.3703358 -0.32935399 0.05544753
2.0185342 1.063203 0.077299848
1.9816189 1.0328758 0.075843312
2.0102081 0.98122299 0.076346569
2.2058854 0.95689428 0.082554415
2.2588644 0.95565754 0.084283389
2.2236559 0.60873222 0.080637403
2.0217261 0.54385203 0.073495902
1.1206874 0.29833969 0.041909531
2.1415677 0.16993658 0.075642884
1.9087248 0.0070139235 0.067274608
1.5544662 -0.00091508403 0.055271428
1.1902099 -0.0054207807 0.042938504
1.1299976 -0.04785569 0.040820286
1.2575556 -0.059645761 0.045114662
1.8829776 -0.10006315 0.066198088
2.1133897 -0.23331155 0.073849879
2.190881 -0.25244215 0.076453798
2.1364734 -0.48338443 0.07471215
1.8361902 -0.42407987 0.064600833
1.4412544 -0.33939412 0.051294751
1.9819034 1.0329819 0.065981738
2.2421453 0.97247714 0.07287097
2.2211251 0.59692377 0.06984888
2.0651925 0.54510087 0.065074109
1.1222116 0.29312426 0.036550052
1.0579561 0.091249406 0.033755593
2.1121254 0.16766946 0.0646962
2.1139665 0.15775044 0.064716101
2.0642271 0.026826318 0.062883012
1.6393894 0.014368092 0.050470997
1.1506709 0.0058198152 0.036207229
1.0951171 0.00053378101 0.034575853
1.0742987 -0.050404891 0.033869393
1.0767094 -0.055643242 0.033931274
1.8827454 -0.10895443 0.057322562
2.1063328 -0.23248447 0.063689157
2.1912043 -0.25244063 0.066140272
2.1644559 -0.47910336 0.065360606
2.1045244 -0.47606307 0.0636314
1.4899232 -0.34358126 0.045832511
1.9821454 1.0330756 0.056117844
2.0539017 0.99111259 0.057537436
2.1990619 0.9656409 0.060812317
2.2033536 0.95573682 0.060852293
2.2212811 0.95161605 0.061252192
2.2286265 0.59890831 0.059412759
2.2195506 0.58541787 0.059124965
2.0679491 0.53550804 0.055215027
1.0271821 0.26363954 0.028731724
1.1570686 0.093862489 0.031189758
2.1131411 0.15770152 0.054747321
2.10589 0.14715913 0.054537103
2.1012051 0.13685292 0.054390848
2.0186543 0.12205496 0.052328676
2.0095694 0.11198072 0.052076682
2.0100572 0.1024646 0.052060839
2.0574138 0.095016003 0.053197242
2.0797884 0.086139053 0.053719368
2.0904236 0.046932358 0.05387485
1.9587045 0.034955014 0.050623033
1.5314759 0.020958198 0.040139072
1.1439536 -0.07020542 0.030476727
2.0565469 -0.13883059 0.052669652
2.1027856 -0.23205282 0.053681884
2.134136 -0.24574506 0.054432899
2.1942546 -0.26323724 0.055882223
2.1069932 -0.46626556 0.053687561
1.9062406 -0.43091899 0.048825253
1.3784215 -0.31764281 0.036037996
1.45965 -0.46003634 0.038082138
1.9724283 1.028024 0.046033736
2.0541098 0.99119186 0.047385469
2.1628006 0.94980752 0.049239308
2.1727805 0.94254732 0.049391501
2.2077968 0.94586003 0.050081689
2.2289805 0.58787596 0.048708521
2.1832113 0.56504434 0.047713321
1.0904971 0.2795507 0.025117993
1.0325767 0.25985226 0.023900164
1.0175825 0.25109956 0.023568936
1.0884693 0.083373129 0.024345476
1.2822994 0.091325909 0.028197559
1.2826976 0.085244626 0.028187772
1.1395081 0.070787176 0.025317268
1.1103102 0.063798279 0.024720622
1.1105804 0.058528166 0.024711363
1.1108257 0.053256668 0.024701841
1.1516982 0.04958576 0.025499936
2.0374558 0.074827105 0.043077152
2.0806882 0.066465005 0.043910205
2.0904143 0.056852028 0.044077996
1.7305819 0.03957307 0.036919724
1.1259248 0.021831458 0.024919581
1.2027779 -0.08542341 0.02622371
2.0171576 -0.15523142 0.042196572
2.1018724 -0.24194776 0.043748822
2.1908929 -0.26279438 0.045478761
2.1741567 -0.45993778 0.04499742
2.1555846 -0.46650314 0.044631328
1.9084357 -0.42203757 0.039810169
1.5096755 -0.34069735 0.032035053
1.977039 1.0194396 0.036238965
2.0472493 1.032783 0.03732593
2.0471451 1.0214678 0.037270647
1.9823637 0.95679945 0.036019374
1.9833058 0.94644409 0.035984434
2.0947137 0.93132716 0.037543904
2.1613145 0.94915003 0.038601823
2.1670763 0.94008076 0.038644642
2.1771512 0.93281233 0.038759127
2.2086968 0.57157737 0.037687853
1.989724 0.50556028 0.034169719
1.0918593 0.27445963 0.019897671
1.0416514 0.25691193 0.019081922
1.0830221 0.041740876 0.019018987
1.3914219 0.045833815 0.02368249
1.3916041 0.039236769 0.023669023
1.0901026 -0.077076495 0.018873282
1.2024425 -0.09110491 0.020542189
1.9476439 -0.15899076 0.031656664
2.1875238 -0.26235348 0.035108142
2.1842747 -0.44078153 0.03485173
2.1253507 -0.43915841 0.033971909
1.7186961 -0.36298937 0.027958572
1.7169715 -0.37100536 0.027926048
1.6035304 -0.35415816 0.026245149
1.5097983 -0.34069741 0.024856117
1.9748933 1.0183389 0.026379941
1.9793144 1.0096585 0.026390785
2.0351412 0.9599399 0.026762411
2.053719 0.95750576 0.026940774
2.0568888 0.92567563 0.026851825
2.0749998 0.92262429 0.02702352
2.0989697 0.92196071 0.027263638
2.1656604 0.93947101 0.028004861
2.1719217 0.93058789 0.028034946
2.2114487 0.56129569 0.027131325
2.1491072 0.53495932 0.026403645
2.1515605 0.52490199 0.02639606
2.1872184 0.52269137 0.026755963
1.093657 -0.087741524 0.013752308
1.8220398 -0.15715496 0.021193983
2.1324155 -0.25563416 0.024243915
2.206063 -0.27511573 0.024975343
2.1822526 -0.40856528 0.02452394
2.0000043 -0.38390309 0.022675574
1.9981748 -0.39324903 0.022643799
1.8121367 -0.36518675 0.020761343
1.6444187 -0.33914053 0.019065434
1.564773 -0.3302142 0.018255606
1.5632023 -0.33751458 0.018229889
1.553003 -0.3428905 0.018117843
1.4520715 -0.32754758 0.017097276
2.3316047 1.3448985 0.019522471
1.9927123 1.0274717 0.016684495
1.9793861 1.0097027 0.016557191
1.9837781 1.0009854 0.016555654
2.010566 0.97032148 0.016613774
2.0251775 0.95528191 0.016650714
2.0414119 0.95181668 0.016731096
2.0335574 0.93718088 0.016643956
2.0497744 0.93354011 0.016723808
2.0663366 0.92990607 0.016805651
2.091536 0.92993355 0.01694661
2.1223195 0.93215322 0.017125288
2.16574 0.93951511 0.01738981
2.1870911 0.93705183 0.017502069
2.2310729 0.54411459 0.016638989
2.2335691 0.5336687 0.016624974
1.093255 -0.092905149 0.0085836202
1.8213308 -0.16573672 0.012599889
2.1324959 -0.25561827 0.01420017
2.2047193 -0.27491957 0.014575062
2.1824539 -0.3874566 0.01423591
1.9955014 -0.36366895 0.013215145
1.6748654 -0.31288758 0.011482792
1.6387488 -0.31402916 0.011275249
1.6251879 -0.31930155 0.011188623
1.6047021 -0.32304665 0.011065435
1.5349728 -0.31636631 0.010681009
1.537696 -0.32443258 0.010682167
1.5361524 -0.33160704 0.010660732
1.5131208 -0.33399624 0.010525752
1.4417527 -0.32518151 0.010136046
1.1890838 -0.6515286 0.0082123373
2.3423185 1.351065 0.007824596
2.17186 1.2163564 0.0073608346
2.2144003 1.2275523 0.0074299052
2.1076124 1.1568485 0.0071677943
2.0953321 1.1383926 0.0071161222
1.9927413 1.0275041 0.0067745103
1.9861003 1.0131215 0.0067373072
2.062212 0.93918252 0.0066633117
2.0709772 0.93199778 0.0066575101
2.0915675 0.92996591 0.0066751279
2.1215148 0.93182111 0.0067108721
2.1678483 0.94044256 0.006778284
2.1956153 0.94069803 0.0068083117
2.2284799 0.9428277 0.0068476954
2.2372336 0.52350712 0.0059635229
1.0928046 -0.098064244 0.0034169462
1.8205415 -0.17431058 0.0040093279
2.1325295 -0.25559932 0.0041559357
2.2012448 -0.2744574 0.0041860919
2.1860499 -0.36697191 0.0039652307
2.1576955 -0.37258306 0.0039230892
1.8029207 -0.31955209 0.0036693611
1.5722368 -0.28590393 0.0035025217
1.5708669 -0.29326499 0.0034847283
1.5863197 -0.30387443 0.0034773289
1.5848676 -0.31129283 0.0034593078
1.5357229 -0.30902436 0.0034128542
1.5109992 -0.31136554 0.0033817296
1.5047854 -0.31741408 0.0033617467
1.494186 -0.32245788 0.0033393973
1.443288 -0.31844345 0.0032949673
1.4118167 -0.31835926 0.0032621447
2.1927104 1.2652733 -0.0035407254
2.2736025 1.2987624 -0.003777538
2.2090988 1.2371182 -0.003628904
2.2164998 1.2287403 -0.0036638468
2.1822102 1.1975694 -0.003583129
2.0953176 1.1384138 -0.0033555576
2.090332 1.1240218 -0.0033554062
2.045795 1.0888021 -0.0032445975
2.1059644 1.1088861 -0.0034267525
2.072561 1.0798949 -0.0033467929
1.9985548 1.0305086 -0.0031520617
2.1338661 0.93723613 -0.0037339674
2.1751201 0.94360393 -0.0038689254
2.1956003 0.94072068 -0.0039437469
2.2215667 0.93995214 -0.0040349723
2.2432864 0.93717384 -0.004114124
2.2300367 0.51087093 -0.0046860822
1.0886374 -0.10286044 -0.0017332137
1.1230093 -0.11157528 -0.0018789154
2.0931334 -0.22083637 -0.0056605251
2.0811946 -0.2294807 -0.005638395
2.0800753 -0.23928025 -0.0056584016
2.0911882 -0.25056133 -0.0057264636
2.1414206 -0.26689047 -0.00594872
2.1685147 -0.35353431 -0.0062658316
1.9724579 -0.33080858 -0.0055005928
1.6228164 -0.27948004 -0.0041080993
1.5076382 -0.26672629 -0.0036602388
1.5063579 -0.27378979 -0.0036740983
1.5096544 -0.28171238 -0.0037067523
1.5195855 -0.29095834 -0.0037668198
1.5138611 -0.29720724 -0.0037627988
1.5124415 -0.30428395 -0.0037765107
1.4971484 -0.30847269 -0.003732821
1.4551556 -0.30684301 -0.0035778885
1.4172882 -0.30571228 -0.0034391587
1.4132894 -0.31175688 -0.0034411596
1.345009 -0.30315849 -0.0031735008
2.2679844 1.3084995 -0.015150802
2.2735381 1.29877 -0.015196651
2.1955848 1.2296369 -0.014597261
2.2143221 1.2275827 -0.014745669
2.2279627 1.2225691 -0.01485464
2.2006671 1.1953321 -0.014645778
2.1245468 1.1423428 -0.014057625
2.1292412 1.1329631 -0.014097294
2.1230462 1.1178629 -0.014052434
2.1107013 1.0996773 -0.013959851
2.0112212 1.0370327 -0.01318985
2.0157235 1.0281932 -0.013228249
2.133805 0.93724734 -0.014203131
2.1526732 0.93397164 -0.014355583
2.1908159 0.93872321 -0.014658747
2.2129858 0.9363851 -0.014837477
2.2498014 0.93991596 -0.015130889
2.2540023 0.92972511 -0.015169721
2.2618475 0.92099059 -0.015237205
2.233959 0.48981291 -0.015357001
2.0598431 -0.21725348 -0.015227349
2.0919952 -0.23067102 -0.015529877
2.0908701 -0.24052148 -0.015547154
2.0970764 -0.25125855 -0.015627827
2.1362758 -0.26622394 -0.015993631
2.228369 -0.28849497 -0.016817883
2.1976442 -0.3371599 -0.016701676
1.937296 -0.30617598 -0.014460845
1.6392426 -0.26650447 -0.011883471
1.5483624 -0.25903347 -0.011111274
1.5001861 -0.2581279 -0.01071107
1.4565108 -0.2575717 -0.010349195
1.4552737 -0.26439679 -0.01035952
1.4552283 -0.27144292 -0.010380486
1.4539279 -0.2782546 -0.010390544
1.4091269 -0.27644244 -0.010016177
1.3946713 -0.28036541 -0.0099093635
1.3896973 -0.28612781 -0.0098863859
1.3792611 -0.29068905 -0.0098148882
1.3680375 -0.29498661 -0.0097362287
1.3463827 -0.29686373 -0.0095643774
1.2954166 -0.29187554 -0.009130206
1.2836869 -0.46309724 -0.0096253809
1.110575 -0.60843915 -0.0088102277
2.2555046 1.3013954 -0.026395483
2.2864206 1.3061436 -0.02678108
2.2919767 1.2963121 -0.026842827
2.2024319 1.2210834 -0.02568244
2.20766 1.2115473 -0.02574075
2.1782975 1.1833071 -0.025358116
2.138443 1.1498193 -0.024842117
2.1293621 1.1330777 -0.024718739
2.1229403 1.1178579 -0.024629479
2.1105959 1.0996728 -0.024464989
2.0770783 1.0708092 -0.024031136
2.0512302 1.0462297 -0.023695312
2.148371 0.9436478 -0.024858028
2.152565 0.93397224 -0.024906974
2.1791482 0.93380618 -0.025240291
2.1948893 0.92882872 -0.025436137
2.2170534 0.92637646 -0.025713647
2.2214308 0.91643047 -0.025765648
2.2514462 0.91683292 -0.0261431
2.2961006 0.92278934 -0.026706384
2.3068483 0.9149487 -0.02683975
2.2338464 0.48982584 -0.025978712
2.2360952 0.47933823 -0.026014334
1.0962113 -0.11405143 -0.012134636
1.1608305 -0.12651843 -0.013008436
2.0752978 -0.23869081 -0.025187293
2.0969715 -0.25123098 -0.025505397
2.1098483 -0.26287603 -0.025707223
2.2213259 -0.28755793 -0.027225425
2.2320056 -0.29963818 -0.027400823
2.22734 -0.30967477 -0.027371706
2.2145636 -0.31849864 -0.027234245
2.1384213 -0.31770489 -0.026247479
1.6824725 -0.25739813 -0.020162368
1.5836009 -0.24971624 -0.01886039
1.4690628 -0.23851793 -0.017344879
1.4404486 -0.24076526 -0.016983002
1.4369092 -0.24710841 -0.016958512
1.4357206 -0.25384569 -0.016965879
1.40169 -0.25454816 -0.016529623
1.3934091 -0.25978354 -0.016440893
1.3921638 -0.26630718 -0.016447438
1.3849618 -0.27164695 -0.016373383
1.3667036 -0.27468109 -0.016149158
1.3542875 -0.27876112 -0.016003983
1.3529571 -0.28508744 -0.016009551
1.3152931 -0.46103832 -0.016230367
1.2796466 -0.45505589 -0.015753753
2.3610325 1.3620085 -0.039615266
2.3008256 1.3143948 -0.038522594
2.3064163 1.3045013 -0.038600601
2.2005727 1.2201235 -0.036679428
2.2057962 1.2105953 -0.036752373
2.1970718 1.1935079 -0.036578089
2.1758952 1.1698947 -0.036183447
2.1366594 1.1369982 -0.035469443
2.1215003 1.1171657 -0.035182741
2.1127036 1.1008245 -0.035009138
2.0894916 1.0772264 -0.03458089
2.0585644 1.050004 -0.034016822
2.1442311 0.9533866 -0.03534143
2.1484616 0.94374424 -0.035401788
2.1356237 0.92672938 -0.035162278
2.1077609 0.90348381 -0.034659121
0.90278602 0.38587537 -0.013473794
2.2253709 0.90634525 -0.036673602
2.3025296 0.92541385 -0.038015183
2.3066814 0.91494119 -0.038075533
2.2998252 0.9001739 -0.03794314
2.323771 0.87306732 -0.038328424
2.2371874 0.49059349 -0.03666069
2.2359331 0.47934639 -0.036640309
2.1519871 0.45099798 -0.035176825
1.160121 -0.1319802 -0.018492144
2.0968206 -0.25120041 -0.03538217
2.1096964 -0.26284495 -0.035647165
2.1566029 -0.27907455 -0.036527086
2.2263315 -0.29885665 -0.037821133
2.2248869 -0.3093189 -0.037831403
2.133086 -0.30665576 -0.036207337
1.6689838 -0.24727745 -0.027838558
1.4557269 -0.22229144 -0.024001403
1.4468805 -0.22788997 -0.023866024
1.4063061 -0.22819507 -0.023154445
1.4008399 -0.23405775 -0.023079969
1.3987124 -0.24045627 -0.023066364
1.3889095 -0.24546941 -0.022913191
1.3641212 -0.24764378 -0.022486744
1.3609117 -0.25365391 -0.02245353
1.3145537 -0.25129998 -0.02163217
1.2973037 -0.25427327 -0.021341709
1.2949491 -0.26011127 -0.021323586
1.2541573 -0.25794548 -0.020601194
1.3078567 -0.45172983 -0.02241361
1.2781718 -0.44797635 -0.02188368
2.311542 1.3205638 -0.050325666
2.2916028 1.29625 -0.049837895
2.2702298 1.2713954 -0.049318358
2.2000997 1.219939 -0.0476906
2.2053218 1.2104124 -0.047778204
2.1779408 1.1832528 -0.047125217
2.1830275 1.1737806 -0.047210515
2.1430449 1.1404477 -0.046273243
2.107707 1.1100194 -0.0454427
2.0916083 1.0899734 -0.045049492
2.0932977 1.0792458 -0.045059968
2.0853696 1.0636547 -0.044852983
2.0785809 1.0487505 -0.044672299
2.1514568 0.95664394 -0.046036702
2.1640897 0.95062816 -0.046297044
2.1734846 0.94310939 -0.046484716
2.3076606 0.87915099 -0.049273234
2.3235517 0.87305176 -0.049608395
2.2369759 0.49059612 -0.047296904
2.1994989 0.47166803 -0.046461005
1.6970189 0.35678568 -0.035304807
1.1223675 -0.12757318 -0.023112897
1.1567056 -0.13711296 -0.023911512
2.0644124 -0.25712499 -0.044561293
2.1439469 -0.27740926 -0.04640587
2.1550491 -0.28917825 -0.046696108
2.1343176 -0.296592 -0.04626216
1.553323 -0.22245903 -0.033055112
1.394164 -0.20604904 -0.029452177
1.3841896 -0.21121374 -0.029250382
1.3757195 -0.21652956 -0.029082978
1.3746728 -0.22299132 -0.029085418
1.3735963 -0.22944503 -0.029087516
1.3499784 -0.23197331 -0.02857348
1.3354391 -0.23590507 -0.028267067
1.2969489 -0.23530562 -0.027410712
1.2636304 -0.23531689 -0.026671957
1.2970707 -0.44136965 -0.028438086
2.3056355 1.3303996 -0.061821576
2.31128 1.320508 -0.061932486
2.3409562 1.324103 -0.062711209
2.3005989 1.2883974 -0.061544765
2.3061025 1.2784587 -0.061652642
2.2050705 1.2103627 -0.058807019
2.2197301 1.2059059 -0.059170958
2.2249138 1.196252 -0.059272371
2.2065115 1.1740972 -0.058721401
2.1604197 1.1376868 -0.057405893
2.1398563 1.1150362 -0.056797873
2.0983121 1.0818948 -0.055611644
2.1007819 1.0715444 -0.055641867
2.0873089 1.0532042 -0.055232745
2.1549783 0.95827562 -0.056702841
2.1785479 0.95701224 -0.057314802
2.1828001 0.94720006 -0.057397932
2.2861047 0.85915548 -0.059874967
2.225034 0.48805889 -0.057616796
2.1589456 0.46311969 -0.055826947
1.2002332 0.25389257 -0.029995354
1.1216069 -0.13285017 -0.02841329
1.2353466 -0.15256751 -0.031553484
2.0629253 -0.26679942 -0.054290947
1.969739 -0.26403537 -0.051770475
1.4488218 -0.20032364 -0.03749096
1.3930554 -0.19918332 -0.035985492
1.3618138 -0.20119423 -0.035153303
1.3161697 -0.200683 -0.033923611
1.2951431 -0.20366913 -0.033371072
1.2565624 -0.2035742 -0.032333836
1.2429984 -0.20734778 -0.031986028
1.2368801 -0.21229307 -0.031843759
1.2672681 -0.4247328 -0.033809613
2.3208566 1.33924 -0.073920026
2.3109689 1.3204366 -0.073536955
2.3249967 1.3152313 -0.073939003
2.3002884 1.2883284 -0.073071606
2.3045018 1.27768 -0.073152795
2.2155473 1.2161778 -0.070186123
2.2194297 1.2058423 -0.070259258
2.2246122 1.1961892 -0.070375144
2.1979227 1.1696515 -0.069450796
2.2009163 1.1589761 -0.069496453
2.1776175 1.134683 -0.068685383
2.1018701 1.0838083 -0.066167392
2.1027219 1.0726179 -0.066146754
2.0870242 1.0531509 -0.065588221
2.1202569 1.0117639 -0.066434905
2.1247034 1.0023224 -0.066533573
2.0931692 0.95357597 -0.065380596
2.1470764 0.96640354 -0.067079797
2.1592822 0.9602626 -0.067430638
2.1964576 0.96491301 -0.068587422
2.1824999 0.94715685 -0.068094023
2.3303235 0.86361796 -0.072360329
2.2224381 0.4984822 -0.068137325
2.1564751 0.47324023 -0.066031329
1.2648892 0.27353528 -0.037769537
1.0725958 0.22747424 -0.031670414
1.1165977 -0.13223995 -0.033552412
1.1557364 -0.14252605 -0.034831788
1.2344277 -0.15836637 -0.037384734
1.3453707 -0.17933775 -0.040978849
1.3161008 -0.18168475 -0.040064454
1.3152161 -0.18787955 -0.040063668
1.2933438 -0.19092372 -0.039386861
1.2250193 -0.18657407 -0.037211291
1.2241138 -0.19233446 -0.037209265
1.2906264 -0.4194892 -0.040613797
1.2690334 -0.41888338 -0.039940223
2.2135224 1.2777582 -0.081533626
2.2901585 1.3087286 -0.084365048
2.3054302 1.2783071 -0.084734604
2.3096089 1.2676193 -0.084823862
2.2610319 1.2284223 -0.082925573
2.2242632 1.1961122 -0.08147528
2.2046154 1.1732993 -0.080671735
2.2013013 1.1592849 -0.080483913
2.1822267 1.1371757 -0.079704784
2.1695907 1.118606 -0.079168946
2.1062417 1.0745027 -0.076732196
2.0735884 1.0465145 -0.075450011
2.1363573 1.0194939 -0.077515371
2.1408372 1.0099804 -0.077626847
2.1265488 0.9917528 -0.077038698
2.1252902 0.97967249 -0.076937512
2.1296158 0.97015947 -0.077044949
2.1808765 0.98161012 -0.078899726
2.1641164 0.96249384 -0.078222536
2.1961079 0.96485728 -0.079358928
2.1560655 0.93585855 -0.07781858
2.2560487 0.51711738 -0.079967536
2.2113597 0.49608889 -0.078316346
1.263411 0.27947375 -0.043756358
1.0809993 0.23456091 -0.037100159
1.2366451 -0.16458949 -0.043328151
1.2358412 -0.17041487 -0.043325849
1.2920288 -0.41341552 -0.04683964
2.284162 1.3184277 -0.09570346
2.289753 1.3086264 -0.095861159
2.2779338 1.2889985 -0.095273748
2.2834249 1.2791784 -0.095428154
2.3000214 1.2625135 -0.095977359
2.3036556 1.2515701 -0.096052982
2.1921091 1.1790438 -0.091218427
2.1961079 1.1689178 -0.091314234
2.2009079 1.1591973 -0.091444522
2.2002354 1.1466193 -0.091342323
2.1817987 1.1249765 -0.090485819
2.1296787 1.0864936 -0.088200718
2.0732162 1.0464368 -0.085735396
2.052397 1.0247035 -0.084785677
2.1267526 1.0150492 -0.087670274
2.1403272 1.0098495 -0.088178314
2.1432862 0.99961346 -0.088238075
2.1476922 0.99003547 -0.088359371
2.1760993 0.99129766 -0.089492857
2.1870279 0.98446786 -0.089889094
2.1848292 0.97174937 -0.089732759
2.1843481 0.95983183 -0.089649536
2.3026338 0.8416695 -0.093780115
2.323426 0.83718014 -0.094592571
2.2556362 0.517097 -0.09070152
2.209975 0.49585241 -0.088792205
1.2631798 0.27946356 -0.049773533
1.2836345 -0.39775801 -0.052601743
2.301085 1.3282825 -0.10801232
2.2800107 1.2903061 -0.10681608
2.333112 1.2807134 -0.10907358
2.3085723 1.241441 -0.1077207
2.2037811 1.173107 -0.10264464
2.1947982 1.1561277 -0.1021322
2.1997943 1.1465193 -0.1022852
2.1856282 1.1270655 -0.10152896
2.1856914 1.1150117 -0.10144936
2.1275122 1.0737818 -0.098610401
2.0592494 1.0282189 -0.095298961
2.139895 1.009765 -0.09873119
2.1444621 1.0002756 -0.098871402
2.2002654 1.0142261 -0.10142539
2.1873577 0.99651003 -0.10074224
2.2020738 0.9913131 -0.10136002
2.1843865 0.97167021 -0.10045461
2.3239789 0.83748662 -0.10588659
2.2545371 0.53918844 -0.10147453
2.2542899 0.52799129 -0.10142694
2.2366204 0.51286083 -0.10057968
2.1736085 0.48785499 -0.097650707
1.1826637 0.26202628 -0.052102618
2.2683222 1.3096272 -0.11786482
2.331146 1.2536602 -0.12044837
2.3134043 1.2312549 -0.11941306
2.200222 1.1591073 -0.11336786
2.2049875 1.1493489 -0.1135224
2.1872046 1.1280111 -0.11249505
2.1900308 1.1173486 -0.11254968
2.1699665 1.0952051 -0.11140666
2.1033444 1.0502179 -0.10783097
2.0632739 1.0190141 -0.10564924
2.1197124 1.0004319 -0.10825387
2.1779506 1.0159204 -0.11120158
2.1997726 1.0141302 -0.11225113
2.2006831 1.0026691 -0.11221282
2.2088647 0.99447823 -0.11255302
2.2059681 0.98133242 -0.11231846
2.3234537 0.83741635 -0.11713406
2.3272395 0.82674062 -0.11725703
2.261616 0.54095185 -0.11259613
2.2553358 0.52831972 -0.11223514
2.1708324 0.49801373 -0.10790828
1.4176081 0.32006884 -0.069681451
1.0909863 0.24216267 -0.053102966
2.3012447 1.3286937 -0.13119769
2.2734392 1.2998085 -0.12946907
2.3334494 1.2290239 -0.13200881
2.2164943 1.1554611 -0.12517728
2.2159786 1.1429086 -0.12504125
2.1915629 1.118273 -0.12353546
2.1694372 1.0950849 -0.12216406
2.1028306 1.0501031 -0.11824878
2.0832682 1.0289599 -0.11703193
2.0653498 1.0088561 -0.11591177
2.0697637 0.99968785 -0.11606964
2.0839329 0.99512559 -0.11678477
2.1012971 0.99193466 -0.11768173
2.1774161 1.015812 -0.12192617
2.1956754 1.0123934 -0.12287024
2.2082341 1.0062258 -0.12348931
2.2126808 0.99632329 -0.12364709
2.2127228 0.98445457 -0.12355519
2.3266625 0.82666242 -0.12850985
2.2585258 0.55149335 -0.12327407
2.2507498 0.53847164 -0.12279273
2.0191011 0.47362399 -0.10988905
1.3343376 0.30821753 -0.071859688
1.0999075 0.24956833 -0.058832344
2.263941 1.3074502 -0.14044298
2.2812223 1.3044088 -0.14140138
2.3330872 1.3206719 -0.14453246
2.3387082 1.3106112 -0.14475442
2.3447058 1.2350911 -0.14436021
2.3500409 1.2248255 -0.14456807
2.2941952 1.1831682 -0.14096068
2.1909814 1.1181366 -0.13440841
2.1688612 1.0949517 -0.13291696
2.1111231 1.0543675 -0.12921292
2.0932479 1.0340046 -0.1279936
2.0834138 1.0177666 -0.12727645
2.0692122 0.9995681 -0.12629019
2.0617883 0.98476666 -0.12572658
2.1040304 0.99336141 -0.12824196
2.1471694 1.0019419 -0.13080968
2.1858258 1.0080308 -0.13309693
2.2036862 1.0043163 -0.13409597
2.2120886 0.99620682 -0.13451014
2.2388866 0.99616599 -0.13605998
2.2063534 0.96996021 -0.13394924
2.3085375 0.8204028 -0.13869084
2.3381064 0.81876987 -0.1404064
2.268105 0.57642359 -0.13476333
2.2242792 0.55434251 -0.13206045
2.0542035 0.50218266 -0.12174757
1.4773967 0.35536852 -0.086925924
1.141665 0.27017844 -0.06665989
1.088146 0.25237888 -0.063409403
2.2750111 1.3139949 -0.15260656
2.2805762 1.3042287 -0.15284318
2.3004007 1.2635278 -0.15362722
2.3496227 1.2247924 -0.15626323
2.3549223 1.2144833 -0.15648404
2.3601873 1.2041302 -0.15670301
2.2961612 1.1589866 -0.15226443
2.1805224 1.0889661 -0.14436749
2.1151106 1.0448921 -0.13985538
2.096307 1.0241802 -0.13847694
2.0884004 1.00893 -0.13783169
2.0990238 1.0025842 -0.13842888
2.1421037 1.0113722 -0.14119704
2.1800597 1.0173459 -0.14361918
2.1930599 1.0115039 -0.14437169
2.2102489 1.0074466 -0.14540347
2.2337873 1.0060735 -0.14685798
2.3891804 1.0627637 -0.15709679
2.3938901 1.0520153 -0.15728848
2.3310089 0.81644428 -0.1512772
2.2788491 0.59057879 -0.14638834
2.1429918 0.54503298 -0.13747267
1.3217914 0.33169311 -0.083948001
1.0929922 0.26978388 -0.069021598
2.2824495 1.3184673 -0.16462055
2.2880318 1.3086683 -0.16487393
2.3064904 1.2541026 -0.16545823
2.3118713 1.2440653 -0.16569933
2.3739688 1.2244449 -0.1696019
2.3891885 1.2190362 -0.17055354
2.3944824 1.2085111 -0.1707879
2.3506813 1.1735941 -0.16748182
2.1412022 1.0578688 -0.15224266
2.1412022 1.0461383 -0.15211345
2.1227572 1.0255842 -0.15065834
2.1369612 1.0207503 -0.15155357
2.17487 1.0269091 -0.1541509
2.1818714 1.0183554 -0.15452677
2.2890756 1.0556723 -0.16208878
2.3510416 1.071376 -0.16639826
2.4009495 1.0810472 -0.16983858
2.4082963 1.0713955 -0.17022973
2.4081202 1.0584098 -0.17008366
2.3302772 0.81633991 -0.16253386
2.3346918 0.80585146 -0.16274178
2.3183157 0.75272894 -0.16118822
2.3202207 0.69443417 -0.16085984
2.2866223 0.61551249 -0.15800515
2.2613084 0.59746689 -0.15615693
1.6806682 0.43708816 -0.11547167
1.0979363 0.2819663 -0.074679114
1.1910104 -0.65304548 -0.087051429
2.2985446 1.3279264 -0.17738971
2.4024203 1.2259572 -0.18347952
2.4088671 1.2159373 -0.18381672
2.391984 1.194298 -0.18235585
2.3550172 1.1630168 -0.17935167
2.1625788 1.0566968 -0.16438907
2.1496909 1.0386909 -0.16325854
2.1696026 1.0364192 -0.1646508
2.176631 1.0279154 -0.16505274
2.2836246 1.0657209 -0.17312264
2.39047 1.1023315 -0.18116912
2.3978832 1.0927832 -0.18158945
2.402709 1.0820278 -0.18181227
2.4074943 1.0712333 -0.1820329
2.41658 1.0622964 -0.18258289
2.3331876 0.8054933 -0.17395115
2.3368349 0.79473203 -0.1741153
2.3330827 0.78149825 -0.1737233
2.3249109 0.76688069 -0.17300048
2.3057466 0.7019431 -0.17105091
2.2742293 0.63511401 -0.16822647
2.2529306 0.61792552 -0.16654596
2.1182749 0.57072586 -0.15639018
1.1767052 0.31361958 -0.085921682
2.3866234 1.3787625 -0.19630694
2.4047344 1.2273519 -0.19564517
2.4118118 1.2176348 -0.19605425
2.4070201 1.2019798 -0.19548991
2.3940153 1.1823767 -0.19425431
2.2442236 1.0965319 -0.18181778
2.1768875 1.0519383 -0.17615159
2.1814921 1.0422536 -0.17637867
2.2046485 1.0412525 -0.17812224
2.3927848 1.1165495 -0.19333236
2.3976984 1.1058511 -0.19357331
2.4025724 1.0951127 -0.19381191
2.3993003 1.0807059 -0.19338794
2.3267915 0.8034668 -0.18475883
2.3367193 0.79485714 -0.18543632
2.3340206 0.78197223 -0.18510227
2.3240781 0.76676792 -0.18418987
2.304848 0.70182157 -0.18210346
2.3081608 0.69114339 -0.18226412
2.3112655 0.6803931 -0.18240964
2.2890997 0.66238374 -0.1805414
2.2786965 0.64793402 -0.17961442
2.2492533 0.62833798 -0.17717324
1.4307383 0.39454457 -0.1119055
1.1022184 0.29970366 -0.085702106
2.2779193 1.3165364 -0.19877486
2.3168073 1.3257134 -0.20200923
2.393121 1.182164 -0.20608127
2.2959514 1.1218638 -0.19746217
2.1945744 1.0606346 -0.18849376
2.1874557 1.045287 -0.18771552
2.1920373 1.0355368 -0.18795352
2.2817862 1.065275 -0.19556548
2.2864718 1.0550704 -0.19580793
2.2158093 1.0107027 -0.18953876
2.3295434 0.79260665 -0.19616164
2.3308759 0.78109699 -0.1961492
2.2797232 0.69438958 -0.19110131
2.3072376 0.6910246 -0.19332032
2.3103137 0.68026906 -0.193471
2.2748265 0.6584385 -0.1903625
1.0806929 0.31033021 -0.089340799
1.1526116 -0.19778852 -0.095222481
2.2472243 1.29914 -0.20742089
2.4108894 1.2309524 -0.22020359
2.392514 1.1821038 -0.21793182
2.3938649 1.1696506 -0.21786612
2.2287035 1.0772413 -0.20252517
2.186589 1.0450884 -0.19849083
2.1911681 1.0353407 -0.19874117
2.2059059 1.0302852 -0.19992198
2.2231469 1.026247 -0.20133092
2.3094821 0.78601116 -0.20566531
2.312712 0.77523357 -0.20582263
2.2819657 0.68367964 -0.20219553
2.2708626 0.66890854 -0.20108704
1.1630936 -0.20528224 -0.10170199
2.2802465 1.3183813 -0.2220206
2.3144503 1.3248844 -0.22516288
2.3368089 1.3243567 -0.22713912
2.3935335 1.1697367 -0.2297391
2.2336962 1.0798684 -0.21408324
2.1856754 1.0448774 -0.20925891
2.1838906 1.0321454 -0.20890753
2.1947935 1.0253495 -0.2097818
2.2222157 1.0260416 -0.21224795
0.90393949 0.2789503 -0.083343431
2.2691655 1.3122805 -0.23240584
2.3123765 1.3239777 -0.23663875
2.3179822 1.314019 -0.23698933
2.4130981 1.1795028 -0.24363992
2.3325706 1.1276166 -0.23524109
2.1965334 1.0502684 -0.22121979
2.1829302 1.0319254 -0.21964918
2.1874559 1.022174 -0.21992075
2.191946 1.0123854 -0.22018968
2.1817033 0.99589628 -0.21896805
0.89465547 0.27621466 -0.08681155
1.1467737 -0.20799397 -0.11124956
2.3074532 1.3345847 -0.248032
2.3049762 1.3200492 -0.24752402
2.4213374 1.1837797 -0.25653353
2.4187205 1.1692816 -0.25603002
2.2890968 1.0944953 -0.2419989
2.1819234 1.0316935 -0.23038279
2.1718152 1.0151514 -0.22911061
2.1762726 1.0054311 -0.2293897
2.1721947 0.99181944 -0.22876357
2.1488068 0.96962577 -0.22609141
0.90011561 0.2779386 -0.091726132
2.2552478 1.3048495 -0.25379488
2.2858868 1.3094718 -0.25701785
2.425333 1.1727424 -0.26880637
2.3118176 1.105559 -0.2559163
2.1854346 1.0335939 -0.24161652
2.1707659 1.0149118 -0.2397764
2.1662884 1.0010942 -0.23907417
2.1706891 0.99138045 -0.23936111
2.1750538 0.98163098 -0.23964512
2.1520405 0.95973641 -0.23689313
0.89967251 0.27788097 -0.09605404
2.3489957 1.359099 -0.27631721
2.2719097 1.3018144 -0.26693085
2.4322147 1.1763453 -0.28168762
2.3668377 1.1319937 -0.27382806
2.1843324 1.033337 -0.25235537
2.1728303 1.0161282 -0.25080088
2.1645362 1.0005449 -0.24962315
2.1695917 0.99113613 -0.2499983
2.2621357 1.0209284 -0.26051974
2.2666366 1.0107509 -0.2608242
0.89920992 0.27782023 -0.10037858
2.2259533 1.2886072 -0.27303231
2.277112 1.3050952 -0.27907547
2.4324489 1.1767639 -0.29383758
2.4234931 1.15923 -0.29249275
2.2786753 1.0779577 -0.27466974
2.1735427 1.0167269 -0.26168934
2.1761413 1.0061392 -0.26177981
2.1824241 0.9972235 -0.26231763
2.2609425 1.0206653 -0.27158996
2.2757244 1.0150486 -0.2731488
2.2810245 1.3206356 -0.29139921
2.2927904 1.3143609 -0.29262516
2.3159077 1.3143916 -0.29530591
2.4311199 1.1764419 -0.30580068
2.436811 1.1658787 -0.3062515
2.3545465 1.1139266 -0.29559609
2.2135468 1.035598 -0.27755004
2.1766539 1.0066503 -0.27266079
2.1810732 0.99688447 -0.27298519
2.2006984 0.99392051 -0.27522454
2.2159674 0.98884255 -0.27691409
2.2859368 1.3238066 -0.30363163
2.2938635 1.315315 -0.30439249
2.4454455 1.1836641 -0.31981766
2.4749463 1.1843494 -0.32341167
2.4258523 1.1477789 -0.31668571
2.2330568 1.0449613 -0.29112843
2.1895947 1.0128822 -0.28518328
2.1798708 0.99662226 -0.28366688
2.1994424 0.99364102 -0.2859869
2.2099183 0.98644441 -0.28711602
2.2190599 0.97857863 -0.28807092
1.1801342 -0.23741223 -0.14874351
2.3438654 1.3575298 -0.32327196
2.3194914 1.3302858 -0.31957969
2.4475827 1.1850344 -0.33232334
2.482198 1.1881435 -0.33675003
2.4578733 1.1631781 -0.33314192
2.3651545 1.1067005 -0.32023314
2.1883001 1.0125841 -0.29590669
2.1785808 0.99632949 -0.29433313
2.190275 0.98981935 -0.29567111
2.2086086 0.98615617 -0.29790944
2.2409308 0.98845273 -0.30204189
0.90537721 0.27542469 -0.11865906
1.1761639 -0.23665994 -0.1538929
1.2033076 -0.24807627 -0.15756895
2.2660332 1.3130598 -0.3239989
2.2926581 1.3153472 -0.32750359
2.3415828 1.2117351 -0.33135879
2.4838817 1.1893005 -0.34938347
2.4563701 1.16282 -0.34519282
2.3867025 1.1170586 -0.33506405
2.2541387 1.0431629 -0.31608891
2.1875007 1.0006855 -0.30643314
2.1918941 0.9908483 -0.30679107
2.2173989 0.99035782 -0.31011876
2.2395535 0.9881531 -0.31297225
2.2281845 0.9712252 -0.31111729
0.89578176 0.2726588 -0.12175639
1.1884402 -0.24503787 -0.16132306
1.2079263 -0.25502339 -0.16408542
2.3003306 1.3201029 -0.34029314
2.4441175 1.1574119 -0.35566729
2.4294021 1.1372763 -0.35320839
2.3498583 1.087514 -0.34129542
2.2089541 1.0107505 -0.32045808
2.2115946 1.0000087 -0.32057032
2.2159894 0.99004507 -0.32093963
2.2224422 0.98096418 -0.32160977
0.89224982 0.2717011 -0.12562944
1.1738962 -0.24206783 -0.16498582
1.1994832 -0.25328717 -0.16870961
1.2120885 -0.26193041 -0.17059436
2.334626 1.3533663 -0.35761276
2.3159468 1.3294076 -0.35439071
2.4700401 1.1699886 -0.37180075
2.4530447 1.1486464 -0.36890996
2.4032636 1.1124351 -0.36107859
2.2804074 1.043566 -0.34224474
2.211565 1.0003196 -0.33158219
2.2145329 0.98972064 -0.33174896
2.2188866 0.9797253 -0.33212608
0.89165348 0.27162081 -0.12990521
1.1834376 -0.24992965 -0.172142
1.205137 -0.26048273 -0.17542467
2.3258641 1.3487232 -0.36811289
2.3144128 1.3289361 -0.36593309
2.4152205 1.2240286 -0.37761778
2.4673455 1.1691037 -0.38373479
2.4590299 1.1518121 -0.38210273
2.4435165 1.1313295 -0.37935373
2.3949101 1.0959936 -0.37145737
2.240459 1.0136398 -0.34710461
2.1886981 0.97857928 -0.33876279
2.1868656 0.96600652 -0.33819413
2.207742 0.96332169 -0.34115386
2.2119894 0.95332348 -0.34153175
0.92104626 0.2804887 -0.13874857
1.1817561 -0.25544843 -0.17770126
2.2956188 1.3316958 -0.37501013
2.3262565 1.336117 -0.37966183
2.4717481 1.158127 -0.39645028
2.4546883 1.1368582 -0.39336258
2.4426322 1.1180818 -0.39108673
2.2761059 1.0300148 -0.36400917
2.2320609 0.99817961 -0.35663366
2.2019129 0.9729442 -0.35150081
2.2407947 0.97798514 -0.35743743
2.4060173 1.0367347 -0.3835898
2.3623672 1.0054286 -0.37629518
0.92747504 0.28251359 -0.14427172
1.2000332 -0.265423 -0.18638271
2.3649809 1.3721482 -0.39845416
2.2995846 1.3213071 -0.38701424
2.2708099 1.2919574 -0.38177899
2.4691896 1.1439346 -0.40804645
2.4449952 1.11955 -0.40368611
2.4233205 1.0965908 -0.39975297
2.2789791 1.0193831 -0.3755345
2.2006674 0.97274297 -0.36227399
2.2391756 0.97763163 -0.36833289
2.3561769 1.0157576 -0.38733819
2.3606579 1.0050671 -0.38776055
1.2172729 -0.27535701 -0.19508931
2.3264222 1.3503414 -0.40381506
2.3229332 1.3350886 -0.40281078
2.3891058 1.1857498 -0.40888888
2.4781549 1.148476 -0.42194101
2.4605272 1.1270258 -0.41856885
2.4539082 1.1107501 -0.4170827
2.426326 1.0852572 -0.41202909
2.3062415 1.0194646 -0.3912349
2.3107224 1.009029 -0.3916716
2.3759537 1.0246052 -0.40243793
2.6070528 1.1097033 -0.44136441
1.1881555 -0.26879123 -0.1961516
2.2488728 1.3060163 -0.40180251
2.3303397 1.3397758 -0.41600019
2.3377805 1.3307372 -0.41692469
2.3125262 1.2382137 -0.41003433
2.3168793 1.2275797 -0.41042203
2.396337 1.1897457 -0.42220598
2.4759715 1.1344774 -0.43360335
2.4635763 1.1155142 -0.43105716
2.4468658 1.0947962 -0.42776102
2.3960302 1.0592953 -0.41849217
2.3089535 1.0086403 -0.40289482
2.3088753 0.99623799 -0.40254858
2.6693435 1.1364926 -0.46524134
1.1571163 -0.26178485 -0.19660982
2.2357452 1.298885 -0.41088924
2.3353195 1.3430897 -0.42882919
2.3428102 1.3340498 -0.42978823
2.3132553 1.2390455 -0.421909
2.3597887 1.1981767 -0.42842644
2.4199693 1.2018534 -0.43858978
2.4542975 1.1918534 -0.44403392
2.4623296 1.1153775 -0.44316986
2.4665232 1.1039599 -0.44355106
2.4497409 1.0833087 -0.44015351
2.3987951 1.0480349 -0.43061143
1.1865839 -0.27447271 -0.20754202
2.2693772 1.3187797 -0.42871433
2.3285329 1.3396846 -0.43949255
2.3360579 1.3307019 -0.44048592
2.3114176 1.2385211 -0.43331984
2.3579035 1.1976737 -0.44001037
